# .PCD v0.7 - Point Cloud Data file format
VERSION 0.7
FIELDS x y z
SIZE 4 4 4
TYPE F F F
COUNT 1 1 1
WIDTH 1546
HEIGHT 1
VIEWPOINT 0 0 0 1 0 0 0
POINTS 1546
DATA ascii
-35.327702 -24.625 122.89382
-34.8815 -24.625 122.9251
-34.402451 -24.625 122.91076
-33.96146 -24.625 122.90981
-33.519531 -24.625 122.91583
-33.079262 -24.625 122.91132
-32.638866 -24.625 122.90829
-32.157597 -24.625 122.91077
-31.71722 -24.625 122.90837
-31.276999 -24.625 122.90536
-30.836842 -24.625 122.90234
-30.397249 -24.625 122.89573
-29.914167 -24.625 122.91506
-29.472519 -24.625 122.92471
-29.032618 -24.625 122.92233
-28.550383 -24.625 122.93848
-28.111179 -24.625 122.93187
-27.704121 -24.625 122.98834
8.3926001 -24.625 122.89575
8.7907839 -24.625 122.90623
9.2289 -24.625 122.91476
9.667716 -24.625 122.9082
10.146083 -24.625 122.9086
10.584499 -24.625 122.91066
11.023234 -24.625 122.90745
11.4615 -24.625 122.91353
11.898983 -24.625 122.93365
12.377633 -24.625 122.9299
12.81794 -24.625 122.90193
13.258616 -24.625 122.8689
13.736683 -24.625 122.87775
14.17126 -24.625 122.94078
14.613434 -24.625 122.88925
15.093384 -24.625 122.87079
15.531281 -24.625 122.8838
15.9702 -24.625 122.88229
16.448217 -24.625 122.89221
16.88744 -24.625 122.88734
17.3269 -24.625 122.88059
17.76528 -24.625 122.88774
18.204384 -24.625 122.88583
18.682016 -24.625 122.90101
19.120241 -24.625 122.91029
19.55895 -24.625 122.91366
20.038351 -24.625 122.90992
20.47912 -24.625 122.89248
20.917866 -24.625 122.89734
21.395752 -24.625 122.91045
21.83736 -24.625 122.88737
22.2759 -24.625 122.89584
22.714121 -24.625 122.90682
23.153948 -24.625 122.90328
23.632101 -24.625 122.91541
24.071001 -24.625 122.92076
24.5103 -24.625 122.92294
24.991768 -24.625 122.90671
25.430698 -24.625 122.91335
25.873335 -24.625 122.88905
26.310619 -24.625 122.9102
26.750885 -24.625 122.90717
27.230085 -24.625 122.91306
27.669638 -24.625 122.91676
28.108232 -24.625 122.92806
28.587181 -24.625 122.9371
29.031759 -24.625 122.90442
29.469185 -24.625 122.92578
29.908741 -24.625 122.9316
30.35145 -24.625 122.91553
30.831833 -24.625 122.91715
31.26618 -24.625 122.96088
31.70933 -24.625 122.94372
32.191814 -24.625 122.93273
32.6334 -24.625 122.92822
33.077717 -24.625 122.90665
33.516739 -24.625 122.92
33.959835 -24.625 122.90791
34.441479 -24.625 122.90641
34.884697 -24.625 122.895
35.326401 -24.625 122.89404
35.767082 -24.625 122.89949
36.207333 -24.625 122.90806
36.688583 -24.625 122.91187
37.128578 -24.625 122.92259
37.5714 -24.625 122.91751
38.052715 -24.625 122.92243
38.493641 -24.625 122.9294
38.935867 -24.625 122.9292
39.377037 -24.625 122.93538
39.821064 -24.625 122.92654
40.260578 -24.625 122.9426
40.704117 -24.625 122.9376
41.188351 -24.625 122.93101
41.630737 -24.625 122.93323
42.073597 -24.625 122.93374
42.518761 -24.625 122.92287
42.960133 -24.625 122.93229
43.445282 -24.625 122.92474
43.889221 -24.625 122.92258
44.330082 -24.625 122.93603
44.769581 -24.625 122.9567
45.217148 -24.625 122.93902
45.663063 -24.625 122.9302
46.105251 -24.625 122.94
46.587101 -24.625 122.95373
47.031757 -24.625 122.95322
47.475666 -24.625 122.95696
47.919018 -24.625 122.96372
48.375813 -24.625 122.91079
48.808479 -24.625 122.9667
49.260315 -24.625 122.93742
49.702679 -24.625 122.95073
50.154018 -24.625 122.9251
50.6418 -24.625 122.91793
51.089417 -24.625 122.90977
51.534382 -24.625 122.91306
51.8144 -24.625 122.9285
-50.54295 -24.15 122.91697
-50.177464 -24.15 122.92553
-49.73357 -24.15 122.92377
-49.289978 -24.15 122.92062
-48.82283 -24.136364 122.92448
-48.380772 -24.163637 122.93147
-47.916107 -24.15 122.92459
-47.470482 -24.150002 122.93185
-47.026276 -24.15 122.93299
-46.583038 -24.15 122.92992
-46.137066 -24.15 122.94041
-45.670162 -24.163635 122.94662
-45.230846 -24.136364 122.94392
-44.768055 -24.15 122.93161
-44.325676 -24.15 122.92732
-43.880505 -24.15 122.93772
-43.437767 -24.15 122.93651
-42.995041 -24.15 122.936
-42.511852 -24.15 122.93722
-42.069809 -24.15 122.93417
-41.627274 -24.15 122.93455
-41.18214 -24.150002 122.9493
-40.739075 -24.15 122.95359
-40.258282 -24.15 122.94488
-39.815109 -24.15 122.951
-39.372871 -24.150002 122.95238
-38.934879 -24.15 122.93018
-38.489742 -24.15 122.94889
-38.0135 -24.15 122.91601
-37.572803 -24.15 122.90996
-37.131031 -24.15 122.91044
-36.650833 -24.15 122.90133
-36.208103 -24.15 122.90878
-35.767151 -24.15 122.90585
-35.326199 -24.15 122.90331
-34.883881 -24.150002 122.90984
-34.419804 -24.136364 122.91637
-33.982792 -24.163637 122.91346
-33.519386 -24.15 122.91689
-33.078712 -24.150002 122.91512
-32.638065 -24.15 122.91354
-32.157154 -24.15 122.91394
-31.715677 -24.15 122.91914
-31.276632 -24.15 122.90798
-30.83667 -24.15 122.90359
-30.395292 -24.15 122.90994
-29.914658 -24.15 122.91138
-29.473059 -24.15 122.9209
-29.033533 -24.15 122.91546
-28.551916 -24.15 122.92639
-28.11117 -24.150002 122.9319
-27.669191 -24.150002 122.94779
-27.236383 -24.050001 123.10722
8.819643 -24.257143 122.89696
9.2294998 -24.150002 122.90154
9.6672668 -24.15 122.91764
10.145926 -24.15 122.91228
10.58415 -24.15 122.91824
10.983277 -24.1 122.90977
11.50104 -24.120001 122.91966
11.918045 -24.163635 122.91676
12.383273 -24.136364 122.89536
12.817988 -24.15 122.90063
13.256058 -24.15 122.90986
13.735158 -24.150002 122.9014
14.174251 -24.150002 122.89537
14.614315 -24.15 122.87611
15.092566 -24.15 122.88235
15.5305 -24.15 122.89452
15.970509 -24.150002 122.87807
16.449091 -24.15 122.88065
16.887691 -24.15 122.88419
17.326424 -24.15 122.88638
17.765099 -24.150002 122.88963
18.202942 -24.15 122.90318
18.6826 -24.150002 122.89419
19.120602 -24.15 122.90585
19.559759 -24.150002 122.9047
20.038366 -24.15 122.90939
20.477751 -24.150002 122.90698
20.918142 -24.150002 122.89474
21.396017 -24.150002 122.90784
21.834639 -24.15 122.91449
22.273499 -24.15 122.91897
22.7124 -24.15 122.9232
23.152542 -24.15 122.91642
23.631226 -24.150002 122.92331
24.07247 -24.150002 122.90752
24.512459 -24.150002 122.904
24.990362 -24.150002 122.9188
25.431009 -24.150002 122.9108
25.872009 -24.150002 122.90009
26.332836 -24.136364 122.90701
26.7682 -24.163637 122.91409
27.229416 -24.150002 122.91833
27.667759 -24.15 122.93129
28.107618 -24.15 122.9328
28.587942 -24.15 122.93131
29.027859 -24.150002 122.93347
29.468016 -24.15 122.9342
29.931072 -24.136364 122.9282
30.369707 -24.163635 122.91516
30.831457 -24.15 122.91982
31.271738 -24.150002 122.92235
31.711824 -24.15 122.9269
32.193066 -24.150002 122.92432
32.635201 -24.15 122.91621
33.078506 -24.15 122.90139
33.521729 -24.15 122.88779
33.960827 -24.150002 122.9016
34.441647 -24.15 122.90536
34.88269 -24.150002 122.90762
35.325275 -24.15 122.9009
35.765518 -24.15 122.90896
36.207493 -24.15 122.90698
36.68932 -24.15 122.90765
37.130341 -24.150002 122.91248
37.572388 -24.15 122.91174
38.012688 -24.150002 122.92152
38.452286 -24.15 122.93585
38.935574 -24.15 122.93079
39.377388 -24.15 122.93343
39.819225 -24.15 122.93655
40.261768 -24.15 122.93629
40.704235 -24.15 122.93707
41.18774 -24.15 122.93417
41.629646 -24.150002 122.93889
42.07217 -24.15 122.9411
42.51569 -24.15 122.9387
42.961178 -24.15 122.92702
43.443493 -24.150002 122.93369
43.886929 -24.15 122.93398
44.329224 -24.15 122.94028
44.771679 -24.150002 122.94659
45.214935 -24.15 122.94955
45.656685 -24.150002 122.96056
46.103344 -24.15 122.94895
46.587658 -24.15 122.95108
47.030121 -24.150002 122.96079
47.476002 -24.15 122.95539
47.920704 -24.150002 122.95613
48.364285 -24.15 122.96243
48.818573 -24.150002 122.92177
49.259472 -24.15 122.9411
49.725719 -24.163637 122.94646
50.170273 -24.136364 122.93457
50.640461 -24.15 122.92374
51.089272 -24.15 122.91042
51.529499 -24.150002 122.93362
51.8167 -24.15 122.91895
-50.542004 -23.700003 122.9212
-50.180218 -23.699999 122.91337
-49.734142 -23.700001 122.92123
-49.292099 -23.699999 122.91111
-48.806534 -23.699999 122.91518
-48.35976 -23.700001 122.92686
-47.914749 -23.699999 122.93091
-47.47226 -23.700001 122.92365
-47.027847 -23.699999 122.9256
-46.584778 -23.700001 122.92171
-46.140167 -23.699999 122.92568
-45.652035 -23.699999 122.94566
-45.210876 -23.700001 122.93404
-44.764954 -23.699999 122.94689
-44.324924 -23.700001 122.93111
-43.882813 -23.699999 122.92609
-43.441139 -23.700001 122.91942
-42.995667 -23.699999 122.93281
-42.513866 -23.699999 122.92666
-42.06852 -23.700001 122.94114
-41.624298 -23.699999 122.95038
-41.183418 -23.700001 122.94232
-40.7411 -23.699999 122.94256
-40.255016 -23.699999 122.96281
-39.816822 -23.700001 122.94153
-39.372601 -23.699999 122.95397
-38.933319 -23.700001 122.93904
-38.4902 -23.699999 122.94627
-38.007683 -23.699999 122.94975
-37.570339 -23.700001 122.92451
-37.134399 -23.699999 122.89043
-36.651554 -23.699999 122.8971
-36.207905 -23.700001 122.91006
-35.768566 -23.699999 122.89687
-35.327904 -23.700001 122.89254
-34.8843 -23.699999 122.9072
-34.403915 -23.699999 122.90128
-33.961479 -23.700001 122.90981
-33.520367 -23.699999 122.91056
-33.078522 -23.700001 122.91638
-32.636215 -23.699999 122.92618
-32.157146 -23.699999 122.91395
-31.71434 -23.700001 122.92861
-31.274315 -23.699999 122.92432
-30.836161 -23.700001 122.90739
-30.395666 -23.699999 122.90732
-29.915701 -23.699999 122.9035
-29.473042 -23.700001 122.9209
-29.032633 -23.699999 122.9223
-28.553499 -23.699999 122.91428
-28.112621 -23.700001 122.92052
-27.671682 -23.699999 122.92782
-27.2281 -23.700001 122.95742
-26.93375 -23.700001 123.07615
9.3097668 -23.700003 122.88923
9.6668167 -23.699999 122.92813
10.1456 -23.699999 122.91912
10.5847 -23.700001 122.90688
11.022183 -23.699999 122.92847
11.46098 -23.700001 122.9236
11.899899 -23.699999 122.91684
12.37835 -23.699999 122.91729
12.816999 -23.700001 122.91704
13.255982 -23.699999 122.91091
13.734 -23.699999 122.91978
14.17544 -23.700001 122.87772
14.613868 -23.699999 122.88296
15.092999 -23.699999 122.87606
15.53124 -23.700001 122.8838
15.96965 -23.699999 122.88965
16.448435 -23.699999 122.88905
16.889339 -23.700001 122.86336
17.326733 -23.699999 122.8827
17.764521 -23.700001 122.89658
18.2027 -23.699999 122.9058
18.68255 -23.699999 122.89472
19.12034 -23.700001 122.909
19.560667 -23.699999 122.89471
20.0389 -23.699999 122.90359
20.479719 -23.700001 122.88615
20.916533 -23.699999 122.911
21.395866 -23.699999 122.90942
21.83522 -23.700001 122.90881
22.2749 -23.699999 122.90528
22.713741 -23.700001 122.91061
23.153151 -23.699999 122.91065
23.632401 -23.699999 122.91226
24.070721 -23.700001 122.92326
24.511148 -23.699999 122.91558
24.991501 -23.699999 122.90881
25.43128 -23.700001 122.90828
25.871201 -23.699999 122.90695
26.35005 -23.699999 122.91489
26.789139 -23.700001 122.92114
27.228102 -23.699999 122.92883
27.672379 -23.700001 122.89532
28.108902 -23.699999 122.9228
28.588984 -23.699999 122.92343
29.031078 -23.700001 122.90946
29.468164 -23.699999 122.93314
29.948915 -23.699999 122.93061
30.39002 -23.700001 122.92612
30.832733 -23.699999 122.91087
31.272919 -23.700001 122.91416
31.717352 -23.699999 122.889
32.195286 -23.699999 122.90958
32.634163 -23.700001 122.92318
33.072865 -23.699999 122.9382
33.519478 -23.700001 122.90232
33.960186 -23.699999 122.90582
34.441483 -23.699999 122.90643
34.883522 -23.700001 122.90255
35.324169 -23.699999 122.90775
35.763538 -23.700001 122.92094
36.208553 -23.699999 122.90067
36.690552 -23.699999 122.9003
37.13076 -23.700001 122.90996
37.570118 -23.699999 122.9249
38.015942 -23.700001 122.90318
38.455296 -23.699999 122.919
38.934353 -23.699999 122.93764
39.376141 -23.700001 122.94041
39.819881 -23.699999 122.93285
40.261517 -23.700001 122.93756
40.703552 -23.699999 122.94076
41.187748 -23.699999 122.93418
41.630741 -23.700001 122.93324
42.073795 -23.699999 122.93268
42.517281 -23.700001 122.93046
42.958698 -23.699999 122.93964
43.444416 -23.699999 122.92892
43.885384 -23.700001 122.94154
44.326862 -23.699999 122.95184
44.773003 -23.700001 122.94026
45.213421 -23.699999 122.95694
45.656658 -23.700001 122.96059
46.103222 -23.699999 122.94949
46.584137 -23.699999 122.96741
47.030945 -23.700001 122.95699
47.474072 -23.699999 122.96435
47.920982 -23.700001 122.95486
48.363132 -23.699999 122.96771
48.822422 -23.700001 122.90468
49.257687 -23.699999 122.94904
49.706398 -23.700001 122.93433
50.156002 -23.699999 122.91666
50.635666 -23.699999 122.94431
51.087921 -23.700001 122.91611
51.533661 -23.699999 122.9162
51.818901 -23.700001 122.9095
-50.540283 -23.2125 122.9286
-50.178051 -23.212502 122.92289
-49.730827 -23.2125 122.93581
-49.292561 -23.212502 122.909
-48.808167 -23.2125 122.90781
-48.3638 -23.212502 122.90847
-47.919338 -23.2125 122.9098
-47.469929 -23.2125 122.93439
-47.028858 -23.212502 122.92085
-46.582619 -23.212502 122.93182
-46.137726 -23.2125 122.93728
-45.67123 -23.197727 122.94141
-45.23167 -23.227274 122.9399
-44.767517 -23.212502 122.93426
-44.325539 -23.212502 122.92792
-43.881748 -23.2125 122.93137
-43.439018 -23.212502 122.93019
-42.995865 -23.212502 122.93177
-42.511959 -23.2125 122.93667
-42.068855 -23.2125 122.93923
-41.627552 -23.2125 122.93298
-41.184944 -23.2125 122.93408
-40.741016 -23.2125 122.94305
-40.257908 -23.2125 122.94698
-39.815701 -23.212502 122.94785
-39.37748 -23.212502 122.92657
-38.929665 -23.2125 122.95992
-38.49387 -23.2125 122.92518
-38.01413 -23.2125 122.91232
-37.573433 -23.212502 122.90615
-37.130974 -23.212502 122.91098
-36.670082 -23.227272 122.89526
-36.231735 -23.197729 122.89806
-35.767075 -23.212502 122.90637
-35.3265 -23.2125 122.90141
-34.885136 -23.2125 122.90192
-34.403927 -23.212502 122.90127
-33.961384 -23.212502 122.91045
-33.520828 -23.2125 122.9074
-33.078899 -23.2125 122.91384
-32.638756 -23.2125 122.90882
-32.157379 -23.212502 122.91238
-31.716778 -23.212502 122.91154
-31.278421 -23.2125 122.89533
-30.836939 -23.2125 122.9017
-30.395584 -23.212502 122.90784
-29.91416 -23.2125 122.91509
-29.473881 -23.2125 122.91459
-29.033134 -23.212502 122.91863
-28.552742 -23.212502 122.92007
-28.112219 -23.212502 122.92368
-27.671349 -23.212502 122.93044
-27.230789 -23.212502 122.9353
-26.818869 -23.180002 122.96913
-26.443451 -23.049999 123.1669
9.7085257 -23.293751 122.88763
10.14615 -23.2125 122.90754
10.550215 -23.282145 122.91386
11.039999 -23.282145 122.91426
11.479922 -23.194447 122.90028
11.900158 -23.2125 122.91264
12.378367 -23.212502 122.91729
12.817299 -23.212502 122.91201
13.257859 -23.212502 122.88097
13.735001 -23.2125 122.9035
14.173671 -23.2125 122.9042
14.613467 -23.2125 122.88874
15.092 -23.212502 122.89023
15.53163 -23.2125 122.87876
15.970084 -23.212502 122.88388
16.449076 -23.2125 122.88065
16.887188 -23.212502 122.89049
17.325365 -23.2125 122.89953
17.764591 -23.212502 122.89596
18.203241 -23.2125 122.8995
18.681385 -23.212502 122.90836
19.120701 -23.2125 122.9046
19.559824 -23.212502 122.90417
20.039286 -23.2125 122.89939
20.476919 -23.212502 122.91582
20.916225 -23.212502 122.91415
21.396441 -23.212502 122.90363
21.835321 -23.2125 122.90755
22.275009 -23.212502 122.90424
22.712599 -23.2125 122.92133
23.152817 -23.2125 122.91381
23.632942 -23.2125 122.90753
24.073727 -23.212502 122.89616
24.512392 -23.2125 122.90453
24.992241 -23.212502 122.9025
25.431149 -23.2125 122.90955
25.871574 -23.212502 122.90377
26.332611 -23.197727 122.90876
26.769409 -23.227274 122.90433
27.229151 -23.2125 122.92041
27.66897 -23.212502 122.92181
28.108034 -23.212502 122.92963
28.58864 -23.212502 122.92606
29.032032 -23.2125 122.90251
29.469885 -23.212502 122.92056
29.931063 -23.197727 122.92822
30.367922 -23.227274 122.9278
30.830322 -23.2125 122.92773
31.270651 -23.212502 122.92992
31.713057 -23.2125 122.91846
32.195576 -23.2125 122.90748
32.634552 -23.2125 122.92061
33.076736 -23.212502 122.91296
33.517521 -23.2125 122.91496
33.960907 -23.2125 122.90106
34.441563 -23.2125 122.90589
34.883911 -23.212502 122.90004
35.324657 -23.212502 122.90459
35.76561 -23.212502 122.90833
36.207932 -23.2125 122.90434
36.689667 -23.212502 122.90556
37.130863 -23.2125 122.90932
37.572575 -23.212502 122.91068
38.013138 -23.2125 122.91899
38.455654 -23.212502 122.91686
38.937191 -23.2125 122.92181
39.3783 -23.212502 122.92839
39.819515 -23.2125 122.93497
40.28397 -23.197729 122.93484
40.723209 -23.227272 122.93344
41.18705 -23.212502 122.93787
41.62952 -23.2125 122.93955
42.072041 -23.212502 122.94163
42.516941 -23.2125 122.93239
42.96159 -23.2125 122.9249
43.443386 -23.212502 122.93423
43.887299 -23.212502 122.93205
44.329235 -23.2125 122.94027
44.772346 -23.2125 122.94342
45.215473 -23.2125 122.94692
45.681057 -23.197729 122.94935
46.120876 -23.227274 122.95278
46.589809 -23.2125 122.94107
47.030647 -23.2125 122.95827
47.474842 -23.212502 122.96066
47.922539 -23.2125 122.9479
48.365582 -23.2125 122.95663
48.849258 -23.212502 122.96524
49.300308 -23.212502 122.93967
49.747757 -23.2125 122.93076
50.191513 -23.2125 122.93832
50.639847 -23.212502 122.92637
51.085979 -23.212502 122.92435
51.537308 -23.2125 122.90093
51.815147 -23.2125 122.92535
-50.537598 -22.75 122.94021
-50.179264 -22.75 122.9176
-49.735859 -22.75 122.91364
-49.292816 -22.75 122.90797
-48.806549 -22.75 122.91519
-48.361164 -22.75 122.92052
-47.919117 -22.75 122.91086
-47.469795 -22.75 122.93502
-47.029202 -22.75 122.91926
-46.583702 -22.75 122.92678
-46.137051 -22.75 122.94042
-45.651798 -22.75 122.94672
-45.210899 -22.75 122.93404
-44.766865 -22.75 122.9374
-44.323124 -22.75 122.93998
-43.884064 -22.75 122.91977
-43.438881 -22.75 122.93082
-42.995029 -22.75 122.93598
-42.512882 -22.75 122.93192
-42.06776 -22.75 122.94495
-41.627666 -22.75 122.93246
-41.182919 -22.75 122.94486
-40.740715 -22.75 122.94463
-40.257137 -22.75 122.95123
-39.815681 -22.75 122.94784
-39.37315 -22.75 122.95081
-38.935558 -22.75 122.92638
-38.495499 -22.75 122.9157
-38.020031 -22.75 122.87803
-37.57098 -22.75 122.92072
-37.135815 -22.75 122.88201
-36.652065 -22.75 122.89395
-36.208519 -22.75 122.90627
-35.766735 -22.75 122.90847
-35.328697 -22.75 122.88749
-34.885803 -22.75 122.89771
-34.402287 -22.75 122.91181
-33.959541 -22.75 122.92242
-33.519535 -22.75 122.91586
-33.079659 -22.75 122.90878
-32.638382 -22.75 122.91144
-32.155148 -22.75 122.92764
-31.716299 -22.75 122.91472
-31.276716 -22.75 122.90749
-30.835079 -22.75 122.91496
-30.3958 -22.75 122.90626
-29.913153 -22.75 122.92246
-29.473379 -22.75 122.91837
-29.034149 -22.75 122.91074
-28.553766 -22.75 122.91217
-28.110682 -22.75 122.93568
-27.671015 -22.75 122.93307
-27.2332 -22.75 122.9157
-26.790751 -22.75 122.9371
-26.342678 -22.75 123.00684
-26.073799 -22.75 123.253
10.226925 -22.75 122.8859
10.584661 -22.75 122.90813
11.0229 -22.75 122.91479
11.461699 -22.75 122.90974
11.900967 -22.75 122.89792
12.378883 -22.75 122.90784
12.817019 -22.75 122.91704
13.255883 -22.75 122.913
13.735316 -22.75 122.89878
14.1757 -22.75 122.87394
14.613999 -22.75 122.88085
15.092716 -22.75 122.88025
15.531801 -22.75 122.87624
15.969666 -22.75 122.88966
16.449167 -22.75 122.87958
16.888241 -22.75 122.87727
17.326216 -22.75 122.88901
17.76536 -22.75 122.88646
18.204851 -22.75 122.88059
18.682482 -22.75 122.89577
19.12022 -22.75 122.91026
19.560484 -22.75 122.89682
20.03775 -22.75 122.91621
20.477921 -22.75 122.90511
20.916018 -22.75 122.91628
21.395149 -22.75 122.91677
21.83432 -22.75 122.91766
22.2749 -22.75 122.9053
22.713739 -22.75 122.9106
23.154167 -22.75 122.90118
23.632998 -22.75 122.90702
24.07464 -22.75 122.88795
24.512085 -22.75 122.90717
24.992018 -22.75 122.90462
25.431438 -22.75 122.90701
25.873482 -22.75 122.888
26.311398 -22.75 122.90391
26.750883 -22.75 122.90717
27.229815 -22.75 122.91518
27.668659 -22.75 122.92436
28.108101 -22.75 122.92911
28.588266 -22.75 122.92868
29.030081 -22.75 122.91704
29.472183 -22.75 122.90372
29.912781 -22.75 122.90257
30.3538 -22.75 122.89867
30.833483 -22.75 122.90561
31.272181 -22.75 122.9192
31.712301 -22.75 122.92373
32.194782 -22.75 122.91273
32.632259 -22.75 122.93579
33.072865 -22.75 122.9382
33.5144 -22.75 122.93518
33.959835 -22.75 122.90792
34.442154 -22.75 122.9022
34.8843 -22.75 122.89752
35.323452 -22.75 122.91195
35.764999 -22.75 122.91212
36.209965 -22.75 122.89225
36.687534 -22.75 122.91817
37.1297 -22.75 122.91628
37.571751 -22.75 122.91541
38.012798 -22.75 122.9209
38.455303 -22.75 122.91898
38.937382 -22.75 122.92075
39.378441 -22.75 122.92776
39.822067 -22.75 122.92126
40.263641 -22.75 122.92615
40.7047 -22.75 122.93445
41.191532 -22.75 122.91415
41.632202 -22.75 122.92562
42.073368 -22.75 122.93478
42.514076 -22.75 122.94692
42.961582 -22.75 122.92492
43.440632 -22.75 122.9479
43.888721 -22.75 122.92509
44.331818 -22.75 122.92762
44.77166 -22.75 122.94658
45.214085 -22.75 122.95379
45.658543 -22.75 122.95174
46.101868 -22.75 122.9558
46.587315 -22.75 122.95266
47.030121 -22.75 122.96079
47.472881 -22.75 122.96963
47.9193 -22.75 122.96243
48.369465 -22.75 122.93924
48.804741 -22.75 122.98314
49.262234 -22.75 122.92896
49.700642 -22.75 122.95959
50.155289 -22.75 122.91984
50.641102 -22.75 122.92108
51.088219 -22.75 122.91486
51.533901 -22.75 122.91516
51.8144 -22.75 122.9285
-50.542202 -22.275002 122.92013
-50.174816 -22.275002 122.93714
-49.715282 -22.288637 122.90706
-49.272305 -22.261364 122.91746
-48.805481 -22.275002 122.91993
-48.363533 -22.275002 122.90974
-47.918995 -22.275 122.91138
-47.473175 -22.275 122.91917
-47.026829 -22.275002 122.93034
-46.583031 -22.275 122.92991
-46.139622 -22.275002 122.92829
-45.65485 -22.275 122.93195
-45.211929 -22.275002 122.92896
-44.76944 -22.275 122.92474
-44.325798 -22.275002 122.92666
-43.88208 -22.275002 122.92979
-43.439011 -22.275002 122.9302
-42.996597 -22.275 122.92807
-42.512348 -22.275002 122.93457
-42.068989 -22.275002 122.9386
-41.627567 -22.275002 122.93298
-41.184959 -22.275002 122.9341
-40.738274 -22.275002 122.9578
-40.258495 -22.275 122.94384
-39.817051 -22.275002 122.94025
-39.375023 -22.275 122.94028
-38.938267 -22.258335 122.91092
-38.473965 -22.261364 122.93458
-38.014515 -22.275 122.91019
-37.570549 -22.275002 122.92324
-37.134571 -22.275002 122.88937
-36.654068 -22.275002 122.88184
-36.20966 -22.275002 122.89931
-35.766201 -22.275002 122.91163
-35.325897 -22.275 122.90521
-34.885372 -22.275 122.90034
-34.420692 -22.288637 122.91062
-33.983761 -22.261366 122.90713
-33.521954 -22.275 122.90003
-33.08012 -22.275 122.90562
-32.637218 -22.275002 122.91935
-32.157761 -22.275002 122.90972
-31.716858 -22.275 122.9109
-31.278059 -22.275002 122.89797
-30.837551 -22.275002 122.89729
-30.396395 -22.275002 122.90206
-29.913366 -22.275002 122.92089
-29.473221 -22.275 122.91963
-29.032761 -22.275002 122.92126
-28.553499 -22.275 122.91428
-28.112528 -22.275002 122.92114
-27.672081 -22.275002 122.92466
-27.231909 -22.275002 122.92647
-26.791693 -22.275002 122.92923
-26.312483 -22.275002 122.92434
-25.87969 -22.258333 123.01675
-25.447559 -22.125 123.14577
10.3476 -22.424999 122.8637
10.619757 -22.339289 122.88942
11.02335 -22.275 122.90588
11.46121 -22.275002 122.91919
11.900599 -22.275 122.90475
12.379367 -22.275002 122.90046
12.848301 -22.3125 122.89342
13.256467 -22.275002 122.90356
13.735676 -22.275002 122.89352
14.175261 -22.275002 122.88023
14.61404 -22.275 122.88033
15.092884 -22.275002 122.87762
15.53159 -22.275 122.87938
15.970698 -22.275002 122.87547
16.449541 -22.275 122.87488
16.888088 -22.275002 122.87917
17.326258 -22.275002 122.88848
17.76589 -22.275002 122.88017
18.204424 -22.275002 122.88531
18.68265 -22.275002 122.89365
19.121 -22.275 122.90143
19.559582 -22.275002 122.90681
20.038759 -22.275 122.90517
20.47703 -22.275002 122.91457
20.917351 -22.275002 122.90259
21.39554 -22.275002 122.91257
21.83617 -22.275002 122.89933
22.273766 -22.275 122.91632
22.713602 -22.275002 122.91185
23.152306 -22.275 122.91854
23.633177 -22.275 122.90543
24.072052 -22.275 122.91129
24.511866 -22.275 122.90927
24.99164 -22.275002 122.90775
25.433069 -22.275002 122.89313
25.871508 -22.275002 122.9043
26.311239 -22.275002 122.90515
26.750223 -22.275 122.91241
27.23015 -22.275 122.91253
27.668411 -22.275002 122.92625
28.11146 -22.275 122.90335
28.588074 -22.275002 122.93027
29.029388 -22.275 122.92207
29.471184 -22.275002 122.91109
29.91188 -22.275002 122.9089
30.350409 -22.275 122.92289
30.829819 -22.275 122.93137
31.269358 -22.275002 122.93874
31.714579 -22.275 122.90793
32.194016 -22.275 122.91802
32.637131 -22.275 122.90359
33.076027 -22.275002 122.91769
33.520958 -22.275 122.89285
33.961651 -22.275 122.89634
34.440731 -22.275 122.91116
34.883934 -22.275002 122.90004
35.325191 -22.275002 122.90142
35.767498 -22.275002 122.89693
36.207775 -22.275002 122.90542
36.690289 -22.275 122.90186
37.130981 -22.275 122.90871
37.572586 -22.275 122.91068
38.013912 -22.275 122.91457
38.453777 -22.275 122.92742
38.937183 -22.275 122.92182
39.380028 -22.275002 122.9189
39.820011 -22.275 122.93233
40.261528 -22.275002 122.93755
40.705502 -22.275002 122.93024
41.187851 -22.275 122.93365
41.631359 -22.275 122.93005
42.07399 -22.275002 122.93162
42.516674 -22.275 122.93362
42.961475 -22.275002 122.92542
43.443714 -22.275002 122.93262
43.887173 -22.275002 122.9327
44.329334 -22.275002 122.93973
44.773392 -22.275 122.93835
45.219585 -22.275 122.92743
45.682137 -22.261366 122.94421
46.121964 -22.288637 122.94761
46.587444 -22.275002 122.95214
47.032158 -22.275002 122.95131
47.476109 -22.275002 122.95486
47.920845 -22.275002 122.95548
48.365131 -22.275002 122.95876
48.816292 -22.275 122.9319
49.265839 -22.275002 122.91315
49.728088 -22.288637 122.9361
50.169724 -22.261366 122.93687
50.638859 -22.275002 122.9306
51.088509 -22.275 122.91359
51.53717 -22.275 122.90144
51.82045 -22.275 122.9032
-50.541 -21.799997 122.92544
-50.179996 -21.800001 122.91445
-49.735279 -21.799999 122.91616
-49.291615 -21.800001 122.91323
-48.846619 -21.799999 122.91664
-48.400387 -21.800001 122.92578
-47.920033 -21.800001 122.90661
-47.473881 -21.799999 122.916
-47.028301 -21.800001 122.9235
-46.584759 -21.799999 122.92171
-46.139267 -21.800001 122.92987
-45.652252 -21.800001 122.94463
-45.209618 -21.799999 122.94038
-44.76643 -21.800001 122.93951
-44.32542 -21.799999 122.92857
-43.881535 -21.800001 122.93243
-43.399532 -21.800001 122.92622
-42.959461 -21.799999 122.91216
-42.514301 -21.800001 122.92454
-42.070442 -21.799999 122.93102
-41.62825 -21.800001 122.9293
-41.182484 -21.799999 122.9474
-40.7411 -21.800001 122.94254
-40.258682 -21.800001 122.94275
-39.817482 -21.799999 122.93772
-39.373718 -21.800001 122.94766
-38.932198 -21.799999 122.94536
-38.491665 -21.800001 122.93784
-38.013332 -21.800001 122.91705
-37.570541 -21.799999 122.92326
-37.133865 -21.800001 122.89356
-36.688179 -21.799999 122.91833
-36.248684 -21.800001 122.90598
-35.768768 -21.800001 122.89581
-35.326702 -21.799999 122.90015
-34.882465 -21.800001 122.91882
-34.402615 -21.800001 122.90968
-33.960503 -21.799999 122.91612
-33.519367 -21.800001 122.91688
-33.078339 -21.799999 122.91762
-32.638836 -21.800001 122.90829
-32.155598 -21.800001 122.92448
-31.71558 -21.799999 122.91976
-31.276701 -21.800001 122.90748
-30.835621 -21.799999 122.91118
-30.39625 -21.800001 122.9031
-29.915701 -21.800001 122.9035
-29.473881 -21.799999 122.9146
-29.033865 -21.800001 122.91281
-28.593121 -21.799999 122.9174
-28.150665 -21.800001 122.93585
-27.670748 -21.800001 122.93517
-27.230579 -21.799999 122.93717
-26.792017 -21.800001 122.92657
-26.310434 -21.800001 122.94169
-25.873322 -21.799999 122.91907
-25.429701 -21.800001 122.95304
-25.050165 -21.799997 123.1286
11.103575 -21.799999 122.8963
11.4617 -21.799999 122.90971
11.899318 -21.800001 122.92735
12.378567 -21.800001 122.91413
12.818601 -21.799999 122.89058
13.259017 -21.800001 122.86257
13.735249 -21.800001 122.89982
14.17594 -21.799999 122.87016
14.61485 -21.800001 122.86823
15.05396 -21.799999 122.86421
15.57255 -21.799999 122.8644
15.969716 -21.800001 122.8886
16.448915 -21.800001 122.88275
16.888241 -21.799999 122.87726
17.325966 -21.800001 122.89216
17.764301 -21.799999 122.89909
18.20405 -21.800001 122.89004
18.68165 -21.800001 122.90522
19.122339 -21.799999 122.88631
19.5602 -21.800001 122.89996
20.037451 -21.800001 122.91938
20.478159 -21.799999 122.90257
20.917366 -21.800001 122.90261
21.395651 -21.800001 122.91152
21.83584 -21.799999 122.90253
22.275434 -21.800001 122.90003
22.713341 -21.799999 122.91438
23.151566 -21.800001 122.92536
23.63175 -21.800001 122.91857
24.07184 -21.799999 122.91319
24.511965 -21.800001 122.90821
24.990667 -21.800001 122.91618
25.432178 -21.799999 122.90072
25.87285 -21.800001 122.89325
26.314779 -21.799999 122.87612
26.750732 -21.800001 122.90823
27.22995 -21.800001 122.91412
27.667679 -21.799999 122.93192
28.108099 -21.800001 122.92912
28.588285 -21.800001 122.92868
29.029739 -21.799999 122.91956
29.472483 -21.800001 122.90159
29.912579 -21.799999 122.90385
30.352318 -21.800001 122.90922
30.826866 -21.800001 122.9519
31.270741 -21.799999 122.92928
31.712751 -21.800001 122.92057
32.193714 -21.800001 122.9201
32.636841 -21.799999 122.90548
33.074932 -21.800001 122.92453
33.517143 -21.799999 122.9175
33.961636 -21.800001 122.89635
34.441818 -21.800001 122.9043
34.883499 -21.799999 122.90257
35.325867 -21.800001 122.89719
35.76606 -21.799999 122.90578
36.206432 -21.800001 122.91332
36.687866 -21.800001 122.91608
37.1301 -21.799999 122.91376
37.573032 -21.800001 122.90805
38.0126 -21.799999 122.92214
38.454716 -21.800001 122.92216
38.936817 -21.800001 122.92393
39.380039 -21.799999 122.9189
39.820301 -21.800001 122.93075
40.263142 -21.799999 122.9287
40.704517 -21.800001 122.93552
41.18755 -21.800001 122.93525
41.629761 -21.799999 122.93828
42.072369 -21.800001 122.94004
42.51482 -21.799999 122.94308
42.958481 -21.800001 122.9407
43.444233 -21.800001 122.92999
43.886917 -21.799999 122.93396
44.328815 -21.800001 122.94234
44.773502 -21.799999 122.93773
45.213181 -21.800001 122.95797
45.659081 -21.799999 122.94916
46.104115 -21.800001 122.94526
46.587566 -21.800001 122.9516
47.02956 -21.799999 122.96336
47.481899 -21.800001 122.9285
47.922661 -21.799999 122.94727
48.365452 -21.800001 122.95718
48.812176 -21.799999 122.95026
49.2603 -21.800001 122.93743
49.7024 -21.799999 122.95204
50.153584 -21.800001 122.92722
50.644287 -21.800001 122.90739
51.085838 -21.799999 122.92497
51.531662 -21.800001 122.92467
51.817402 -21.799999 122.9158
-50.544647 -21.362501 122.90958
-50.179615 -21.362503 122.91604
-49.733261 -21.362501 122.92503
-49.290104 -21.362503 122.92008
-48.805252 -21.362501 122.92099
-48.363518 -21.362501 122.90973
-47.916595 -21.362501 122.92249
-47.471443 -21.362501 122.92741
-47.027302 -21.362501 122.92825
-46.582081 -21.362501 122.93436
-46.137844 -21.362501 122.93671
-45.653442 -21.362501 122.93878
-45.209332 -21.362503 122.94163
-44.766338 -21.362501 122.94006
-44.325027 -21.362501 122.93046
-43.881344 -21.362497 122.93348
-43.417767 -21.375 122.92657
-42.977173 -21.350002 122.93379
-42.511635 -21.362501 122.93826
-42.068382 -21.362499 122.94177
-41.628048 -21.362503 122.93032
-41.181793 -21.362501 122.95119
-40.741413 -21.362503 122.94094
-40.257523 -21.362501 122.9491
-39.816139 -21.362503 122.94531
-39.373898 -21.362501 122.9466
-38.930759 -21.362499 122.9536
-38.491016 -21.362501 122.94152
-38.013325 -21.362501 122.91706
-37.573128 -21.362501 122.90806
-37.132637 -21.362501 122.90096
-36.647861 -21.362503 122.91923
-36.20562 -21.362501 122.92397
-35.763062 -21.362503 122.93111
-35.322372 -21.362499 122.92733
-34.883801 -21.362503 122.91036
-34.402443 -21.362501 122.91074
-33.96217 -21.362499 122.90537
-33.520893 -21.362503 122.90688
-33.079468 -21.362501 122.91005
-32.637691 -21.362503 122.91619
-32.156521 -21.362501 122.91815
-31.716309 -21.362499 122.91471
-31.277161 -21.362503 122.90432
-30.834911 -21.362501 122.91624
-30.395525 -21.362503 122.90836
-29.916498 -21.362501 122.8977
-29.472778 -21.362503 122.92281
-29.032623 -21.362501 122.9223
-28.552069 -21.362501 122.92533
-28.110691 -21.362499 122.93568
-27.672785 -21.362503 122.91885
-27.231833 -21.362499 122.9271
-26.792128 -21.362501 122.92553
-26.31131 -21.362503 122.93432
-25.8717 -21.362501 122.93298
-25.431574 -21.362501 122.93676
-24.96969 -21.350002 122.94077
-24.554821 -21.347221 123.03429
-24.0963 -21.225 123.0885
11.2247 -21.5 122.8678
11.484418 -21.375 122.89151
11.917963 -21.35 122.91849
12.378575 -21.362501 122.91412
12.81852 -21.362501 122.89181
13.257458 -21.362503 122.88727
13.736458 -21.362503 122.88143
14.175261 -21.362499 122.88025
14.612884 -21.362503 122.89713
15.092216 -21.362503 122.88708
15.530901 -21.362503 122.88884
15.96976 -21.362501 122.88807
16.448809 -21.362503 122.88432
16.887449 -21.362499 122.88733
17.325827 -21.362503 122.89375
17.76441 -21.362499 122.89783
18.203917 -21.362503 122.89162
18.681925 -21.362503 122.90207
19.12151 -21.362503 122.89575
19.56064 -21.362503 122.89523
20.038267 -21.362501 122.91043
20.47715 -21.362499 122.91329
20.916899 -21.362501 122.90733
21.395325 -21.362503 122.91467
21.834299 -21.362501 122.91764
22.273874 -21.362503 122.91528
22.713339 -21.362499 122.91437
23.152601 -21.362501 122.91592
23.632544 -21.362501 122.91122
24.071491 -21.362499 122.91634
24.511452 -21.362501 122.91296
24.992416 -21.362501 122.90092
25.431429 -21.362501 122.90702
25.871124 -21.362501 122.90746
26.331566 -21.350002 122.91735
26.768827 -21.375 122.90894
27.228104 -21.362503 122.92884
27.669048 -21.362501 122.9212
28.110151 -21.362503 122.91331
28.588692 -21.362503 122.92553
29.029459 -21.362501 122.92145
29.470398 -21.362503 122.91686
29.931843 -21.35 122.92246
30.367773 -21.375 122.92893
30.831833 -21.362501 122.9172
31.270283 -21.362499 122.93246
31.714439 -21.362503 122.90899
32.192848 -21.362501 122.9259
32.635399 -21.362501 122.91496
33.076664 -21.362503 122.91349
33.51791 -21.362501 122.91244
33.960823 -21.362503 122.9016
34.440807 -21.362501 122.91064
34.883678 -21.362499 122.90131
35.324734 -21.362503 122.90405
35.766659 -21.362499 122.902
36.206871 -21.362501 122.91068
36.687855 -21.362503 122.91608
37.12925 -21.362499 122.9188
37.571945 -21.362503 122.91437
38.01247 -21.362501 122.92278
38.454533 -21.362503 122.92319
38.936161 -21.362501 122.92762
39.380035 -21.362501 122.91891
39.821651 -21.362501 122.92338
40.262596 -21.362501 122.93185
40.703548 -21.362503 122.94074
41.186947 -21.362503 122.93838
41.63002 -21.362501 122.93703
42.07349 -21.362503 122.93427
42.514942 -21.362501 122.94249
42.960445 -21.362501 122.9307
43.44191 -21.362501 122.94159
43.88731 -21.362501 122.93208
44.329666 -21.362501 122.93813
44.771935 -21.362501 122.9453
45.216717 -21.362501 122.94114
45.682034 -21.35 122.94478
46.122581 -21.375002 122.94476
46.588459 -21.362501 122.94739
47.03244 -21.362501 122.95006
47.47887 -21.362501 122.94223
47.920563 -21.362499 122.95674
48.364056 -21.362501 122.96349
48.81216 -21.362501 122.95023
49.260803 -21.362503 122.93531
49.7076 -21.362499 122.92926
50.150517 -21.362503 122.94041
50.639477 -21.362503 122.92797
51.087177 -21.362501 122.91929
51.533024 -21.362501 122.91886
51.81815 -21.362499 122.9127
-50.535664 -20.924999 122.94867
-50.178555 -20.925001 122.9208
-49.73558 -20.924999 122.91489
-49.290432 -20.925001 122.91854
-48.848579 -20.924999 122.90778
-48.398285 -20.925001 122.93528
-47.915203 -20.925001 122.92878
-47.469795 -20.924999 122.93502
-47.027634 -20.925001 122.92667
-46.583424 -20.924999 122.92804
-46.136845 -20.925001 122.94147
-45.654633 -20.925001 122.93299
-45.21064 -20.924999 122.93529
-44.767929 -20.925001 122.93213
-44.325397 -20.924999 122.92857
-43.883015 -20.925001 122.92505
-43.4389 -20.924999 122.93083
-42.995667 -20.925001 122.93284
-42.510418 -20.925001 122.94457
-42.06802 -20.924999 122.94368
-41.626484 -20.925001 122.93875
-41.18412 -20.924999 122.93851
-40.742085 -20.925001 122.93726
-40.258099 -20.925001 122.94592
-39.816139 -20.924999 122.94529
-39.37183 -20.925001 122.95819
-38.9333 -20.924999 122.93904
-38.495319 -20.925001 122.91676
-38.013718 -20.925001 122.91496
-37.573959 -20.924999 122.90298
-37.136703 -20.925001 122.87672
-36.692162 -20.924999 122.89431
-36.247303 -20.925001 122.91443
-35.76778 -20.925001 122.90215
-35.3265 -20.924999 122.90141
-34.885799 -20.925001 122.89773
-34.401634 -20.925001 122.91602
-33.960899 -20.924999 122.91359
-33.520817 -20.925001 122.90741
-33.07814 -20.924999 122.9189
-32.635883 -20.925001 122.92831
-32.156235 -20.925001 122.92027
-31.713602 -20.924999 122.93365
-31.276701 -20.925001 122.90748
-30.835119 -20.924999 122.91496
-30.393484 -20.925001 122.92313
-29.914719 -20.925001 122.91088
-29.4734 -20.924999 122.91837
-29.032618 -20.925001 122.92229
-28.550499 -20.925001 122.93746
-28.113241 -20.924999 122.91545
-27.671 -20.925001 122.93304
-27.23476 -20.924999 122.9031
-26.792534 -20.925001 122.92236
-26.311401 -20.925001 122.93328
-25.872278 -20.924999 122.92793
-25.432251 -20.925001 122.93097
-24.951981 -20.925001 122.93658
-24.512539 -20.924999 122.93498
-24.071966 -20.925001 122.94476
-23.627539 -20.924999 122.99068
-23.21006 -20.924999 123.16298
11.979574 -20.924999 122.9178
12.377567 -20.925001 122.93096
12.81754 -20.924999 122.90822
13.257033 -20.925001 122.8941
13.734967 -20.925001 122.90405
14.175601 -20.924999 122.87521
14.614551 -20.925001 122.87244
15.092632 -20.925001 122.88131
15.53124 -20.924999 122.8838
15.9706 -20.925001 122.87704
16.448433 -20.925001 122.88905
16.886662 -20.924999 122.89742
17.3263 -20.925001 122.88795
17.765461 -20.924999 122.88521
18.204334 -20.925001 122.88688
18.681917 -20.925001 122.90208
19.120661 -20.924999 122.90523
19.559433 -20.925001 122.90839
20.039801 -20.925001 122.89416
20.4772 -20.924999 122.91266
20.91715 -20.925001 122.9047
21.395849 -20.925001 122.90942
21.834179 -20.924999 122.9189
22.273066 -20.925001 122.92316
22.713619 -20.924999 122.91184
23.152718 -20.925001 122.91486
23.632217 -20.925001 122.91437
24.07114 -20.924999 122.91948
24.509249 -20.925001 122.93241
24.991516 -20.925001 122.90881
25.43236 -20.924999 122.89944
25.871698 -20.925001 122.90271
26.31168 -20.924999 122.90138
26.751284 -20.925001 122.90401
27.230333 -20.925001 122.91095
27.6693 -20.924999 122.9193
28.107666 -20.925001 122.93225
28.587465 -20.925001 122.935
29.032761 -20.924999 122.89683
29.472334 -20.925001 122.90265
29.91102 -20.924999 122.9152
30.352768 -20.925001 122.90604
30.829567 -20.925001 122.93296
31.26856 -20.924999 122.94444
31.711332 -20.925001 122.93005
32.191647 -20.925001 122.93378
32.635098 -20.924999 122.91685
33.077549 -20.925001 122.90769
33.520077 -20.924999 122.89856
33.961468 -20.925001 122.89738
34.440983 -20.925001 122.90958
34.883499 -20.924999 122.90259
35.324665 -20.925001 122.90457
35.766884 -20.924999 122.90072
36.206966 -20.925001 122.91015
36.687515 -20.925001 122.91821
37.1273 -20.924999 122.93018
37.569569 -20.925001 122.92806
38.0117 -20.924999 122.92722
38.452099 -20.925001 122.93693
38.933964 -20.925001 122.93974
39.376343 -20.924999 122.93916
39.822033 -20.925001 122.92124
40.260841 -20.924999 122.94135
40.705883 -20.925001 122.92815
41.18655 -20.925001 122.94048
41.628799 -20.924999 122.94334
42.071949 -20.925001 122.94216
42.513836 -20.924999 122.94818
42.958698 -20.925001 122.93964
43.445919 -20.925001 122.92155
43.886921 -20.924999 122.93396
44.330952 -20.925001 122.93182
44.772976 -20.924999 122.94026
45.214935 -20.925001 122.94956
45.696499 -20.925001 122.9632
46.144741 -20.924999 122.94411
46.587566 -20.925001 122.95161
47.036701 -20.924999 122.93047
47.47728 -20.925001 122.94958
47.920979 -20.924999 122.95486
48.37347 -20.925001 122.9213
48.814156 -20.924999 122.94141
49.264648 -20.925001 122.91846
49.711937 -20.924999 122.91026
50.152332 -20.925001 122.9325
50.640118 -20.925001 122.92532
51.088799 -20.924999 122.91233
51.53368 -20.925001 122.91623
51.818901 -20.924999 122.9095
-50.542202 -20.487499 122.92011
-50.177593 -20.487501 122.92503
-49.73613 -20.487501 122.91235
-49.293625 -20.487501 122.90426
-48.804688 -20.487503 122.92362
-48.362415 -20.487501 122.91479
-47.917606 -20.487501 122.9177
-47.471031 -20.487499 122.92931
-47.026501 -20.487503 122.93195
-46.583969 -20.487499 122.92549
-46.138062 -20.487501 122.93568
-45.672054 -20.475 122.9374
-45.231667 -20.500002 122.93989
-44.767181 -20.487501 122.93582
-44.326061 -20.487501 122.92543
-43.882603 -20.487501 122.92716
-43.4394 -20.487501 122.92831
-42.995251 -20.487501 122.93494
-42.513683 -20.487503 122.9277
-42.06971 -20.487499 122.93479
-41.625568 -20.487501 122.94353
-41.182831 -20.487499 122.9455
-40.739937 -20.487503 122.94885
-40.258018 -20.487501 122.94647
-39.815098 -20.487501 122.95099
-39.374928 -20.487501 122.9408
-38.932976 -20.487501 122.94096
-38.492298 -20.487501 122.93412
-38.014935 -20.487501 122.90755
-37.577644 -20.487499 122.88148
-37.131664 -20.487501 122.90677
-36.668083 -20.5 122.90733
-36.225807 -20.475002 122.93428
-35.766724 -20.487501 122.90847
-35.323555 -20.487501 122.91974
-34.883133 -20.487501 122.9146
-34.403835 -20.487501 122.90179
-33.961189 -20.487499 122.9117
-33.519218 -20.487501 122.91794
-33.078899 -20.487501 122.91384
-32.639698 -20.487501 122.90249
-32.157074 -20.487501 122.91446
-31.717579 -20.487501 122.90587
-31.276426 -20.487501 122.90957
-30.835529 -20.487501 122.9118
-30.395224 -20.487501 122.91046
-29.913885 -20.487501 122.91718
-29.472378 -20.487499 122.92596
-29.033175 -20.487501 122.9181
-28.552618 -20.487501 122.92114
-28.111012 -20.487499 122.93314
-27.671692 -20.487501 122.92782
-27.231451 -20.487499 122.93025
-26.792135 -20.487501 122.92551
-26.311666 -20.487501 122.93116
-25.871929 -20.487501 122.93107
-25.432716 -20.487501 122.92673
-24.953466 -20.487501 122.92342
-24.513811 -20.487499 122.9236
-24.0744 -20.487501 122.92211
-23.633917 -20.487501 122.93071
-23.192392 -20.487501 122.95023
-22.712736 -20.487501 122.95313
-22.266788 -20.487499 123.01835
-21.852921 -20.460001 123.08473
-21.39122 -20.35 122.98875
-21.018749 -20.35 123.12743
12.1029 -20.625 122.853
12.4202 -20.533333 122.88344
12.81776 -20.487499 122.90442
13.256707 -20.487501 122.89989
13.735301 -20.487501 122.89929
14.17388 -20.487501 122.90105
14.614532 -20.487501 122.87296
15.093117 -20.487501 122.87445
15.53203 -20.487501 122.87309
15.970592 -20.487501 122.87704
16.430529 -20.5 122.88625
16.866255 -20.475002 122.87996
17.32605 -20.487501 122.89111
17.7651 -20.487499 122.88963
18.204374 -20.487501 122.88635
18.682917 -20.487501 122.89051
19.121109 -20.487499 122.90017
19.560057 -20.487501 122.90154
20.037775 -20.487501 122.91571
20.47769 -20.487501 122.90762
20.91675 -20.487501 122.9089
21.396484 -20.487501 122.90311
21.83585 -20.487499 122.9025
22.274248 -20.487501 122.9116
22.71228 -20.487499 122.92446
23.152824 -20.487501 122.9138
23.632601 -20.487501 122.91068
24.07233 -20.487501 122.90878
24.512526 -20.487501 122.90347
24.991142 -20.487503 122.91196
25.431429 -20.487499 122.90702
25.871275 -20.487503 122.9064
26.310919 -20.487501 122.90768
26.750818 -20.487501 122.90771
27.230158 -20.487501 122.91253
27.669048 -20.487499 122.92118
28.110498 -20.487501 122.91068
28.588903 -20.487501 122.92397
29.03006 -20.487499 122.91703
29.470041 -20.487501 122.91946
29.948473 -20.487501 122.93378
30.389368 -20.487501 122.93053
30.830038 -20.487501 122.92982
31.270741 -20.487499 122.92931
31.712202 -20.487501 122.92426
32.192131 -20.487501 122.93063
32.637596 -20.487499 122.90041
33.075684 -20.487501 122.9198
33.517036 -20.487499 122.91811
33.959423 -20.487501 122.91055
34.442482 -20.487501 122.90012
34.88168 -20.487499 122.9139
35.323032 -20.487501 122.91458
35.764687 -20.487501 122.91402
36.207489 -20.487501 122.90699
36.687767 -20.487501 122.9166
37.12925 -20.487499 122.91882
37.570759 -20.487501 122.9212
38.015041 -20.487499 122.90824
38.453876 -20.487501 122.92691
38.936432 -20.487501 122.92603
39.37727 -20.487499 122.9341
39.819801 -20.487501 122.93341
40.261993 -20.487499 122.93502
40.703831 -20.487501 122.93919
41.190048 -20.487501 122.92206
41.630135 -20.487499 122.93636
42.073364 -20.487501 122.93478
42.515064 -20.487499 122.94183
42.959408 -20.487501 122.93597
43.444874 -20.487501 122.92683
43.88718 -20.487499 122.93269
44.330631 -20.487501 122.93341
44.774677 -20.487499 122.93204
45.213852 -20.487501 122.95481
45.680939 -20.475 122.94995
46.121738 -20.500002 122.94878
46.58823 -20.487499 122.94843
47.032852 -20.487501 122.94814
47.475784 -20.487501 122.95645
47.91988 -20.487501 122.9599
48.37006 -20.487501 122.93661
48.850681 -20.487501 122.9589
49.299583 -20.487501 122.94281
49.710068 -20.487499 122.9185
50.156384 -20.487499 122.91511
50.638493 -20.487503 122.93219
51.088074 -20.487501 122.9155
51.535282 -20.487501 122.90936
51.817398 -20.487499 122.91585
-50.541504 -20.049999 122.9233
-50.180714 -20.050001 122.91129
-49.740162 -20.049999 122.89461
-49.290234 -20.050001 122.91956
-48.805363 -20.050001 122.92049
-48.358917 -20.049999 122.93066
-47.9175 -20.050001 122.91827
-47.4739 -20.049999 122.91599
-47.031666 -20.050001 122.90765
-46.583702 -20.049999 122.92673
-46.140148 -20.050001 122.92564
-45.654415 -20.050001 122.93406
-45.211678 -20.049999 122.93022
-44.769886 -20.050001 122.92264
-44.327457 -20.049999 122.91842
-43.880493 -20.050001 122.93774
-43.438896 -20.049999 122.93081
-42.998749 -20.050001 122.91698
-42.513248 -20.050001 122.92984
-42.070679 -20.049999 122.92973
-41.628448 -20.050001 122.92823
-41.18412 -20.049999 122.93852
-40.740513 -20.050001 122.94568
-40.259651 -20.050001 122.9375
-39.820702 -20.049999 122.91998
-39.372952 -20.050001 122.95188
-38.903065 -20.050001 122.88257
-38.463116 -20.049999 122.87124
-38.016567 -20.050001 122.89806
-37.5783 -20.049999 122.8777
-37.134785 -20.050001 122.88831
-36.649448 -20.050001 122.90973
-36.21244 -20.049999 122.88223
-35.769302 -20.050001 122.89266
-35.327301 -20.049999 122.89634
-34.885132 -20.050001 122.90194
-34.403584 -20.050001 122.90338
-33.960522 -20.049999 122.91614
-33.519703 -20.050001 122.91476
-33.079079 -20.049999 122.91256
-32.639332 -20.050001 122.90513
-32.156384 -20.050001 122.91922
-31.717937 -20.049999 122.9033
-31.276718 -20.050001 122.90748
-30.83666 -20.049999 122.9036
-30.3971 -20.050001 122.89682
-29.914452 -20.050001 122.91296
-29.472561 -20.049999 122.92467
-29.031935 -20.050001 122.92757
-28.553482 -20.050001 122.91428
-28.111639 -20.049999 122.92812
-27.671549 -20.050001 122.92886
-27.232141 -20.049999 122.92458
-26.791 -20.050001 122.935
-26.310915 -20.050001 122.93749
-25.872299 -20.049999 122.9279
-25.432348 -20.050001 122.92991
-24.952332 -20.050001 122.93343
-24.5138 -20.049999 122.92362
-24.0748 -20.050001 122.91843
-23.6348 -20.049999 122.92249
-23.194868 -20.050001 122.92655
-22.714767 -20.050001 122.93317
-22.274078 -20.049999 122.94582
-21.835785 -20.050001 122.9349
-21.356615 -20.050001 122.93304
-20.916418 -20.049999 122.94248
-20.469 -20.050001 123.0314
