# .PCD v0.7 - Point Cloud Data file format
VERSION 0.7
FIELDS x y z
SIZE 4 4 4
TYPE F F F
COUNT 1 1 1
WIDTH 1526
HEIGHT 1
VIEWPOINT 0 0 0 1 0 0 0
POINTS 1526
DATA ascii
35.243328 -35.724995 122.91097
35.724319 -35.724998 122.91531
36.248909 -35.724995 122.89951
36.768391 -35.724995 122.91495
37.249844 -35.724995 122.9183
37.732769 -35.724998 122.91373
38.255043 -35.724998 122.91486
38.775867 -35.724998 122.92457
39.25832 -35.724998 122.92478
39.738972 -35.724998 122.93555
40.220943 -35.724998 122.93948
40.746254 -35.724995 122.92744
41.269756 -35.724998 122.92622
41.7514 -35.724995 122.93389
42.23624 -35.724995 122.92575
42.757915 -35.724995 122.93605
43.282059 -35.724998 122.93478
43.767826 -35.724995 122.92461
44.248142 -35.724998 122.94241
44.733418 -35.724995 122.93647
45.254658 -35.724995 122.95264
45.779694 -35.724998 122.95162
46.265472 -35.724998 122.94634
46.7477 -35.724995 122.95846
47.233318 -35.724995 122.95588
47.747086 -35.711533 122.92512
48.264893 -35.738457 122.94762
48.774609 -35.724995 122.93726
49.258408 -35.724995 122.94587
49.742908 -35.724998 122.95185
50.236027 -35.724998 122.92092
50.716541 -35.740906 122.92924
51.24931 -35.724995 122.91904
51.69659 -35.724995 122.91261
-50.585152 -35.224998 122.90915
-50.264069 -35.225002 122.89988
-49.780334 -35.225002 122.89545
-49.253174 -35.225002 122.90461
-48.725582 -35.225002 122.91604
-48.241268 -35.225002 122.91482
-47.757236 -35.225002 122.91259
-47.274384 -35.225002 122.90509
-46.746086 -35.225002 122.92212
-46.220798 -35.225002 122.92584
-45.735031 -35.225002 122.93423
-45.254215 -35.225002 122.91946
-44.770496 -35.225002 122.91949
-44.242855 -35.225002 122.93851
-43.722416 -35.225002 122.92262
-43.238968 -35.225002 122.9238
-42.756283 -35.225002 122.92184
-42.271133 -35.225002 122.93359
-41.748554 -35.225002 122.93121
-41.226803 -35.225002 122.92544
-40.74342 -35.225002 122.92988
-40.259632 -35.225002 122.93751
-39.7775 -35.225002 122.93673
-39.258099 -35.225002 122.91998
-38.731701 -35.225002 122.94349
-38.256565 -35.225002 122.90371
-37.779449 -35.225002 122.87559
-37.250973 -35.225002 122.91341
-36.7309 -35.225002 122.90249
-36.252483 -35.225002 122.88281
-35.770451 -35.225002 122.88528
-35.247368 -35.225002 122.8944
-34.725052 -35.225002 122.89963
-34.243515 -35.225002 122.90101
-33.765034 -35.225002 122.88351
-33.278919 -35.225002 122.91656
-32.756969 -35.225002 122.92267
-32.237732 -35.225002 122.91089
-31.759735 -35.225002 122.89126
-31.279684 -35.225002 122.88641
-30.757429 -35.225002 122.89748
-30.234818 -35.225002 122.91235
-29.7549 -35.225002 122.90855
-29.274933 -35.225002 122.90578
-28.8715 -35.224998 122.9305
-3.2468166 -35.225002 122.83667
-2.7678001 -35.225002 122.88625
-2.2495716 -35.225002 122.88519
-1.7311667 -35.225002 122.91904
-1.2529833 -35.225002 122.8898
-0.77469993 -35.225002 122.88161
-0.25648573 -35.225002 122.87099
0.2617 -35.225002 122.87453
0.73986667 -35.225002 122.9147
1.2581857 -35.225002 122.88116
1.7764 -35.225002 122.87717
2.2546999 -35.225002 122.87954
2.7326834 -35.225002 122.90397
3.2509141 -35.225002 122.89326
3.7689502 -35.225002 122.90018
4.2474499 -35.225002 122.88888
4.7258 -35.225002 122.88602
5.243443 -35.225002 122.90553
5.7613664 -35.225002 122.91384
6.2398 -35.225002 122.90678
6.7581143 -35.225002 122.90159
7.276567 -35.225002 122.89264
7.7550335 -35.225002 122.88983
8.2330332 -35.225002 122.89862
8.7512999 -35.225002 122.89705
9.2692499 -35.225002 122.90347
9.7476492 -35.225002 122.90388
10.225683 -35.225002 122.91165
10.743515 -35.225002 122.92065
11.262116 -35.225002 122.91449
11.740233 -35.225002 122.9202
12.218384 -35.225002 122.92588
12.740829 -35.225002 122.85697
13.257149 -35.225002 122.892
13.737166 -35.225002 122.8704
14.255586 -35.225002 122.87237
14.773866 -35.225002 122.87646
15.252883 -35.225002 122.87164
15.730651 -35.225002 122.8847
16.250113 -35.225002 122.87361
16.768551 -35.225002 122.87711
17.247084 -35.225002 122.8807
17.7251 -35.225002 122.89062
18.243713 -35.225002 122.89292
18.762117 -35.225002 122.89774
19.241301 -35.225002 122.8951
19.758099 -35.225002 122.91827
20.276999 -35.225002 122.9191
20.755499 -35.225002 122.92484
21.234766 -35.225002 122.92325
21.7547 -35.225002 122.91524
22.273268 -35.225002 122.92107
22.754066 -35.225002 122.90688
23.232618 -35.225002 122.91476
23.752871 -35.225002 122.90697
24.272532 -35.225002 122.90531
24.752401 -35.225002 122.90273
25.231634 -35.225002 122.90647
25.753843 -35.225002 122.88531
26.271568 -35.225002 122.90234
26.749184 -35.225002 122.92085
27.229683 -35.225002 122.91622
27.751587 -35.225002 122.90172
28.268 -35.225002 122.93003
28.747549 -35.225002 122.93485
29.229834 -35.225002 122.9197
29.749842 -35.225002 122.92263
30.2712 -35.225002 122.91665
30.748884 -35.225002 122.93723
31.232782 -35.225002 122.9147
31.720316 -35.225002 122.86898
32.237904 -35.225002 122.89247
32.756901 -35.225002 122.90693
33.237152 -35.225002 122.9128
33.719284 -35.225002 122.9071
34.242928 -35.225002 122.89345
34.763718 -35.225002 122.89877
35.242313 -35.225002 122.91729
35.724781 -35.225002 122.91266
36.24823 -35.225002 122.90357
36.768566 -35.225002 122.91391
37.25267 -35.225002 122.90197
37.732498 -35.225002 122.91528
38.255177 -35.225002 122.91396
38.775417 -35.225002 122.92721
39.257381 -35.225002 122.93005
39.740215 -35.225002 122.92868
40.223583 -35.225002 122.92522
40.747684 -35.225002 122.91974
41.268467 -35.225002 122.93304
41.752636 -35.225002 122.92756
42.2337 -35.225002 122.93891
42.721054 -35.225002 122.9187
43.24424 -35.225002 122.92231
43.767635 -35.225002 122.92567
44.251583 -35.225002 122.92551
44.733547 -35.225002 122.93594
45.260143 -35.225002 122.92645
45.784149 -35.225002 122.93052
46.263218 -35.225002 122.95687
46.749634 -35.225002 122.94949
47.234234 -35.225002 122.95166
47.7271 -35.225002 122.91695
48.24926 -35.225002 122.93404
48.768902 -35.225002 122.96258
49.260849 -35.225002 122.93528
49.749317 -35.225002 122.9239
50.25172 -35.224998 122.95815
50.722599 -35.225002 122.91901
51.250164 -35.225002 122.9154
51.69735 -35.224998 122.90943
-50.586597 -34.700001 122.90283
-50.263363 -34.699997 122.90302
-49.779617 -34.699997 122.89862
-49.253975 -34.699997 122.901
-48.7285 -34.699997 122.90282
-48.243572 -34.700001 122.90427
-47.758373 -34.699997 122.9073
-47.27103 -34.700001 122.92091
-46.746769 -34.700001 122.91895
-46.222351 -34.700001 122.91846
-45.737339 -34.699997 122.92313
-45.252262 -34.700001 122.92896
-44.769756 -34.700001 122.92318
-44.2463 -34.699997 122.92134
-43.721981 -34.699997 122.92472
-43.239185 -34.699997 122.92275
-42.755672 -34.699997 122.92499
-42.272625 -34.699997 122.92568
-41.747799 -34.699997 122.9353
-41.224602 -34.699997 122.937
-40.743732 -34.699997 122.92828
-40.261951 -34.700001 122.92486
-39.778267 -34.699997 122.93249
-39.254822 -34.700001 122.93848
-38.735851 -34.699997 122.91977
-38.258602 -34.700001 122.89213
-37.774689 -34.700001 122.90353
-37.2551 -34.700001 122.88903
-36.733128 -34.699997 122.88931
-36.250259 -34.700001 122.89651
-35.770725 -34.699997 122.88367
-35.249031 -34.700001 122.884
-34.726795 -34.700001 122.88853
-34.243885 -34.700001 122.89895
-33.762928 -34.699997 122.89718
-33.259789 -34.686535 122.90026
-32.742378 -34.713459 122.89615
-32.239799 -34.700001 122.89669
-31.757927 -34.700001 122.90389
-31.256733 -34.686539 122.89611
-30.739353 -34.713459 122.89445
-30.236094 -34.699997 122.90286
-29.755262 -34.699997 122.90591
-29.274797 -34.699997 122.90684
-28.873665 -34.699997 122.91394
-3.0487001 -34.875 122.7274
-2.7285125 -34.787498 122.82808
-2.24965 -34.699997 122.87621
-1.7314249 -34.699997 122.87543
-1.253075 -34.700001 122.87509
-0.77470827 -34.700001 122.8758
-0.25650004 -34.699997 122.88046
0.2617 -34.700001 122.8798
0.74003333 -34.700001 122.87369
1.2581501 -34.700001 122.88609
1.7763335 -34.700001 122.88454
2.2544832 -34.699997 122.89741
2.7328415 -34.700001 122.89081
3.2510073 -34.699997 122.88966
3.7690079 -34.699997 122.89596
4.2472582 -34.699997 122.89834
4.7256088 -34.699997 122.89442
5.2437215 -34.699997 122.8952
5.7620254 -34.699997 122.88966
6.2401252 -34.700001 122.89523
6.757957 -34.699997 122.90654
7.2762084 -34.699997 122.90368
7.7546582 -34.700001 122.89928
8.2331076 -34.699997 122.89651
8.7508783 -34.699997 122.90742
9.2694159 -34.699997 122.90032
9.7473745 -34.699997 122.90966
10.226041 -34.699997 122.90429
10.7443 -34.700001 122.90444
11.262609 -34.700001 122.90503
11.741675 -34.700001 122.89393
12.259679 -34.700001 122.90174
12.7783 -34.699997 122.89785
13.257365 -34.699997 122.88885
13.736099 -34.699997 122.88669
14.255178 -34.699997 122.87775
14.77319 -34.699997 122.8859
15.251724 -34.699997 122.88792
15.730617 -34.700001 122.88523
16.249443 -34.699997 122.88263
16.767807 -34.699997 122.88654
17.246107 -34.700001 122.89279
17.725817 -34.700001 122.8822
18.24333 -34.700001 122.89744
18.762484 -34.699997 122.89355
19.24151 -34.700001 122.893
19.759842 -34.700001 122.89936
20.277433 -34.700001 122.91437
20.756618 -34.699997 122.9133
21.235968 -34.700001 122.91116
21.754816 -34.700001 122.91389
22.275236 -34.700001 122.90214
22.753733 -34.699997 122.91003
23.232431 -34.700001 122.91636
23.752945 -34.700001 122.90651
24.271814 -34.700001 122.91161
24.750183 -34.700001 122.92221
25.230455 -34.699997 122.91647
25.751272 -34.700001 122.90694
26.271019 -34.700001 122.90708
26.750742 -34.700001 122.90823
27.229826 -34.699997 122.91518
27.74935 -34.700001 122.91882
28.267939 -34.699997 122.93054
28.74984 -34.700001 122.91751
29.232607 -34.700001 122.89918
29.752377 -34.700001 122.90412
30.269709 -34.699997 122.92719
30.751402 -34.700001 122.91938
31.232178 -34.699997 122.91889
31.752691 -34.699997 122.92135
32.2756 -34.700001 122.90845
32.757526 -34.700001 122.90271
33.237133 -34.700001 122.9128
33.738892 -34.686539 122.91991
34.259945 -34.713463 122.90292
34.763973 -34.700001 122.89718
35.245564 -34.699997 122.89729
35.725727 -34.700001 122.90687
36.248608 -34.700001 122.90131
36.768291 -34.699997 122.9155
37.251213 -34.700001 122.91038
37.732861 -34.700001 122.9132
38.25375 -34.700001 122.92208
38.775028 -34.700001 122.92931
39.257565 -34.700001 122.92899
39.739643 -34.699997 122.93185
40.221725 -34.700001 122.93526
40.745609 -34.700001 122.93103
41.26746 -34.699997 122.93835
41.750599 -34.700001 122.93812
42.234318 -34.699997 122.93576
42.741196 -34.686539 122.92658
43.259781 -34.713459 122.93757
43.764973 -34.700001 122.93884
44.249847 -34.699997 122.93397
44.732559 -34.700001 122.94067
45.236141 -34.713459 122.9522
45.759071 -34.686539 122.9463
46.26231 -34.699997 122.96108
46.751011 -34.700001 122.94317
47.235367 -34.699997 122.94638
47.756741 -34.700001 122.96597
48.285053 -34.699997 122.95502
48.775784 -34.700001 122.93198
49.256977 -34.699997 122.95219
49.743275 -34.700001 122.95026
50.238361 -34.699997 122.9109
50.724468 -34.700001 122.91109
51.248676 -34.699997 122.92175
51.697151 -34.700001 122.91022
-50.585152 -34.174999 122.90915
-50.259998 -34.174999 122.91782
-49.775799 -34.174999 122.91552
-49.252571 -34.174999 122.90733
-48.727448 -34.174999 122.90759
-48.244049 -34.174999 122.90216
-47.757473 -34.174999 122.91153
-47.272152 -34.174999 122.91565
-46.746471 -34.174999 122.92034
-46.222382 -34.174999 122.91846
-45.738987 -34.174999 122.91523
-45.254868 -34.174999 122.91628
-44.769669 -34.174999 122.92368
-44.245045 -34.174999 122.92765
-43.722401 -34.174999 122.92263
-43.239803 -34.174999 122.91959
-42.756084 -34.174999 122.9229
-42.271698 -34.174999 122.93045
-41.750797 -34.174999 122.91945
-41.225803 -34.174999 122.93069
-40.743649 -34.174999 122.92883
-40.259247 -34.174999 122.93961
-39.777683 -34.174999 122.93564
-39.256489 -34.174999 122.92902
-38.730221 -34.174999 122.95191
-38.253479 -34.174999 122.92164
-37.776199 -34.174999 122.89456
-37.253094 -34.174999 122.90076
-36.733566 -34.174999 122.88668
-36.24955 -34.174999 122.90073
-35.7691 -34.174999 122.89371
-35.248661 -34.174999 122.88628
-34.727203 -34.174999 122.8859
-34.243866 -34.174999 122.89892
-33.76115 -34.174999 122.90879
-33.280487 -34.174999 122.90604
-32.759632 -34.174999 122.90459
-32.238968 -34.174999 122.90247
-31.756567 -34.174999 122.91339
-31.277884 -34.174999 122.89902
-30.757298 -34.174999 122.8984
-30.237398 -34.174999 122.89342
-29.7535 -34.174999 122.91909
-29.272982 -34.174999 122.92052
-28.873125 -34.174999 122.91788
-2.0908668 -34.174999 122.79089
-1.7315 -34.174999 122.86333
-1.2530667 -34.174999 122.87195
-0.77469993 -34.174999 122.87634
-0.25648573 -34.174999 122.87099
0.26168332 -34.174999 122.87873
0.74005002 -34.174999 122.87894
1.2582142 -34.174999 122.87844
1.7764834 -34.174999 122.87089
2.2546 -34.174999 122.88688
2.7327166 -34.174999 122.90082
3.2508717 -34.174999 122.89597
3.7688332 -34.174999 122.90752
4.2472 -34.174999 122.90151
4.7254834 -34.174999 122.89967
5.2436996 -34.174999 122.89565
5.7621827 -34.174999 122.88441
6.2405334 -34.174999 122.88262
6.7584996 -34.174999 122.88987
7.2767506 -34.174999 122.88736
7.7551498 -34.174999 122.88669
8.233449 -34.174999 122.8881
8.751585 -34.174999 122.88985
9.2690659 -34.174999 122.90873
9.7480993 -34.174999 122.89441
10.227 -34.174999 122.88432
10.747444 -34.174999 122.84229
11.2653 -34.174999 122.85354
11.740983 -34.174999 122.90653
12.259871 -34.174999 122.89814
12.778834 -34.174999 122.8884
13.257115 -34.174999 122.89304
13.7365 -34.174999 122.8809
14.256042 -34.174999 122.86517
14.77415 -34.174999 122.87225
15.24845 -34.174999 122.93365
15.729133 -34.174999 122.90572
16.251143 -34.174999 122.86008
16.768135 -34.174999 122.88235
17.247583 -34.174999 122.87438
17.7258 -34.174999 122.8822
18.2435 -34.174999 122.89563
18.762384 -34.174999 122.89462
19.241333 -34.174999 122.8951
19.720549 -34.174999 122.89243
20.238888 -34.174999 122.8997
20.755999 -34.174999 122.91959
21.235817 -34.174999 122.91275
21.753872 -34.174999 122.92334
22.274267 -34.174999 122.91158
22.753851 -34.174999 122.90899
23.233284 -34.174999 122.90847
23.751886 -34.174999 122.91597
24.2712 -34.174999 122.91687
24.752167 -34.174999 122.90484
25.232618 -34.174999 122.89805
25.751673 -34.174999 122.90334
26.272882 -34.174999 122.89182
26.751419 -34.174999 122.90295
27.230352 -34.174999 122.91097
27.750299 -34.174999 122.91161
28.267733 -34.174999 122.93215
28.750467 -34.174999 122.91276
29.230967 -34.174999 122.91126
29.751556 -34.174999 122.91002
30.268265 -34.174999 122.93768
30.751101 -34.174999 122.92147
31.230499 -34.174999 122.93048
31.752773 -34.174999 122.92091
32.272465 -34.174999 122.92951
32.761501 -34.174999 122.87641
33.23975 -34.174999 122.89596
33.720436 -34.174999 122.89972
34.243214 -34.174999 122.89165
34.763386 -34.174999 122.90086
35.246449 -34.174999 122.89201
35.728249 -34.174999 122.89158
36.247643 -34.174999 122.90718
36.769115 -34.174999 122.91076
37.249752 -34.174999 122.91882
37.731949 -34.174999 122.91846
38.254719 -34.174999 122.91667
38.778782 -34.174999 122.90824
39.259281 -34.174999 122.9195
39.740597 -34.174999 122.92657
40.223 -34.174999 122.92841
40.744686 -34.174999 122.936
41.271267 -34.174999 122.91834
41.752613 -34.174999 122.92757
42.236549 -34.174999 122.92416
42.720669 -34.174999 122.9208
43.242409 -34.174999 122.93134
43.764034 -34.174999 122.9436
44.251148 -34.174999 122.92764
44.736786 -34.174999 122.92011
45.216282 -34.174999 122.94324
45.741398 -34.174999 122.94176
46.264118 -34.174999 122.95266
46.751003 -34.174999 122.94315
47.240185 -34.174999 122.92426
47.717331 -34.174999 122.96124
48.249458 -34.174999 122.93311
48.778652 -34.174999 122.91933
49.254101 -34.174999 122.96485
49.748367 -34.174999 122.92815
50.236282 -34.174999 122.91987
50.724567 -34.174999 122.91058
51.252541 -34.174999 122.90546
51.695827 -34.174999 122.91575
-50.583649 -33.825001 122.91545
-50.260723 -33.825001 122.91467
-49.777004 -33.825001 122.91024
-49.256996 -33.825001 122.88741
-48.731647 -33.825001 122.88856
-48.246334 -33.825001 122.89161
-47.758602 -33.825001 122.90623
-47.272385 -33.825001 122.91458
-46.786518 -33.825001 122.92187
-46.258728 -33.825001 122.9373
-45.739437 -33.825001 122.91312
-45.253998 -33.825001 122.9205
-44.76833 -33.825001 122.93002
-44.246304 -33.825001 122.92134
-43.726185 -33.825001 122.90359
-43.240002 -33.825001 122.9185
-42.7565 -33.825001 122.92077
-42.271915 -33.825001 122.92939
-41.748726 -33.825001 122.93031
-41.224422 -33.825001 122.93809
-40.742851 -33.825001 122.93304
-40.258465 -33.825001 122.94385
-39.7771 -33.825001 122.93881
-39.253929 -33.825001 122.94348
-38.730221 -33.825001 122.9519
-38.253651 -33.825001 122.92059
-37.77243 -33.825001 122.91672
-37.252216 -33.825001 122.9062
-36.734764 -33.825001 122.8793
-36.249199 -33.825001 122.90283
-35.769764 -33.825001 122.8895
-35.248657 -33.825001 122.88625
-34.725216 -33.825001 122.89857
-34.243881 -33.825001 122.89893
-33.763432 -33.825001 122.89404
-33.240513 -33.825001 122.9053
-32.718853 -33.825001 122.90945
-32.236485 -33.825001 122.91931
-31.758835 -33.825001 122.89758
-31.276415 -33.825001 122.90958
-30.756443 -33.825001 122.90472
-30.237684 -33.825001 122.8913
-29.755182 -33.825001 122.90644
-29.273399 -33.825001 122.91737
-28.872524 -33.825001 122.92262
-1.6522501 -33.825001 122.78427
-1.2531 -33.825001 122.8688
-0.77469993 -33.825001 122.87739
-0.25648573 -33.825001 122.8719
0.26173332 -33.825001 122.87452
0.73998332 -33.825001 122.88737
1.2581714 -33.825001 122.88295
1.7764168 -33.825001 122.87823
2.2545998 -33.825001 122.88796
2.7328665 -33.825001 122.89135
3.2509856 -33.825001 122.88966
3.7691832 -33.825001 122.88859
4.2474165 -33.825001 122.89098
4.7255998 -33.825001 122.89442
5.2436996 -33.825001 122.89475
5.7616997 -33.825001 122.90125
6.2402167 -33.825001 122.89209
6.7583575 -33.825001 122.89439
7.2766171 -33.825001 122.89158
7.7553172 -33.825001 122.88144
8.2329512 -33.825001 122.90072
8.7516432 -33.825001 122.88896
9.2703161 -33.825001 122.88035
9.747817 -33.825001 122.89969
10.225984 -33.825001 122.90534
10.744886 -33.825001 122.89274
11.263267 -33.825001 122.89243
11.741317 -33.825001 122.90022
12.258186 -33.825001 122.92698
12.777717 -33.825001 122.90731
13.255982 -33.825001 122.91091
13.7352 -33.825001 122.90087
14.256643 -33.825001 122.85615
14.774484 -33.825001 122.86697
15.252518 -33.825001 122.8769
15.731282 -33.825001 122.87629
16.250486 -33.825001 122.8691
16.768618 -33.825001 122.87606
17.246067 -33.825001 122.89331
17.725534 -33.825001 122.88537
18.243429 -33.825001 122.89652
18.761833 -33.825001 122.90092
19.240667 -33.825001 122.90246
19.760086 -33.825001 122.89666
20.277468 -33.825001 122.91385
20.756416 -33.825001 122.91538
21.234781 -33.825001 122.92325
21.755701 -33.825001 122.90533
22.274683 -33.825001 122.90739
22.752752 -33.825001 122.9195
23.233068 -33.825001 122.91056
23.751657 -33.825001 122.91779
24.270966 -33.825001 122.91898
24.75145 -33.825001 122.91113
25.233465 -33.825001 122.89068
25.751698 -33.825001 122.90337
26.2707 -33.825001 122.90972
26.753202 -33.825001 122.88825
27.229836 -33.825001 122.91516
27.749128 -33.825001 122.92064
28.271317 -33.825001 122.90476
28.752401 -33.825001 122.89802
29.232384 -33.825001 122.90076
29.753185 -33.825001 122.89827
30.269117 -33.825001 122.9314
30.750198 -33.825001 122.92777
31.23642 -33.825001 122.88944
31.751299 -33.825001 122.93082
32.273083 -33.825001 122.9253
32.755463 -33.825001 122.91644
33.238781 -33.825001 122.90226
33.759468 -33.825001 122.90653
34.280468 -33.825001 122.90972
34.762547 -33.825001 122.90616
35.2449 -33.825001 122.90148
35.72493 -33.825001 122.9116
36.246712 -33.825001 122.9126
36.768917 -33.825001 122.9118
37.252651 -33.825001 122.90195
37.732468 -33.825001 122.91528
38.254574 -33.825001 122.91754
38.776718 -33.825001 122.9198
39.258316 -33.825001 122.92478
39.739048 -33.825001 122.93502
40.223583 -33.825001 122.92522
40.746029 -33.825001 122.92877
41.270233 -33.825001 122.92361
41.750801 -33.825001 122.93705
42.237347 -33.825001 122.91994
42.721668 -33.825001 122.9155
43.243156 -33.825001 122.92774
43.766132 -33.825001 122.93304
44.249866 -33.825001 122.93391
44.730267 -33.825001 122.95174
45.254669 -33.825001 122.95264
45.781265 -33.825001 122.94424
46.266582 -33.825001 122.94104
46.746685 -33.825001 122.96322
47.235165 -33.825001 122.94744
47.757824 -33.825001 122.96101
48.241982 -33.825001 122.96674
48.737858 -33.825001 122.9206
49.261784 -33.825001 122.93108
49.750797 -33.825001 122.91756
50.238003 -33.825001 122.91251
50.719868 -33.825001 122.93063
51.249546 -33.825001 122.91811
51.693573 -33.825001 122.92525
-50.585876 -33.299999 122.90598
-50.261684 -33.299999 122.91042
-49.779148 -33.299999 122.90073
-49.253361 -33.300003 122.90371
-48.727566 -33.299999 122.90705
-48.240448 -33.299999 122.91852
-47.757923 -33.299999 122.9094
-47.271801 -33.300003 122.91721
-46.747536 -33.300003 122.91535
-46.22057 -33.300003 122.9269
-45.73624 -33.299999 122.92844
-45.252701 -33.300003 122.92684
-44.770493 -33.299999 122.91946
-44.24649 -33.300003 122.92043
-43.722836 -33.299999 122.92049
-43.240406 -33.300003 122.91639
-42.756516 -33.299999 122.92077
-42.272114 -33.300003 122.92831
-41.749668 -33.299999 122.92534
-41.225304 -33.300003 122.93332
-40.742268 -33.299999 122.9362
-40.259556 -33.299999 122.93802
-39.776348 -33.300003 122.94302
-39.256744 -33.300003 122.92765
-38.734642 -33.299999 122.92661
-38.255383 -33.299999 122.91058
-37.778656 -33.300003 122.88031
-37.25769 -33.299999 122.87368
-36.733284 -33.299999 122.88825
-36.252758 -33.299999 122.88123
-35.769699 -33.299999 122.89001
-35.247726 -33.299999 122.89213
-34.726803 -33.299999 122.88855
-34.245575 -33.299999 122.88786
-33.761791 -33.300003 122.90457
-33.260792 -33.286537 122.89346
-32.740944 -33.313461 122.90587
-32.239643 -33.300003 122.89771
-31.7586 -33.300003 122.89916
-31.278791 -33.299999 122.8927
-30.757488 -33.300003 122.89704
-30.237101 -33.299999 122.89551
-29.755186 -33.300003 122.90643
-29.274658 -33.299999 122.90789
-28.830679 -33.300003 122.93667
-1.2133601 -33.474998 122.83289
-0.77474993 -33.300003 122.85215
-0.25649285 -33.299999 122.87505
0.26168337 -33.299999 122.88611
0.74006671 -33.299999 122.87159
1.2582072 -33.300003 122.87798
1.7763251 -33.299999 122.88715
2.2546 -33.300003 122.8869
2.7327998 -33.299999 122.89555
3.250993 -33.300003 122.88921
3.7688916 -33.299999 122.90333
4.2472587 -33.300003 122.89834
4.7256918 -33.299999 122.89127
5.2435999 -33.300003 122.8997
5.7620912 -33.299999 122.88754
6.2401333 -33.300003 122.89575
6.7583933 -33.299999 122.89303
7.2766995 -33.300003 122.88897
7.7551079 -33.299999 122.88721
8.2335997 -33.300003 122.8839
8.751193 -33.300003 122.90022
9.2701006 -33.300003 122.88507
9.7478838 -33.299999 122.89863
10.226951 -33.300003 122.88538
10.744357 -33.299999 122.90355
11.263474 -33.300003 122.88874
11.74175 -33.299999 122.89233
12.259643 -33.300003 122.90131
12.77925 -33.299999 122.88156
13.256966 -33.300003 122.89569
13.7366 -33.299999 122.87933
14.255307 -33.300003 122.87597
14.772408 -33.299999 122.89695
15.252784 -33.300003 122.87322
15.73124 -33.299999 122.87683
16.248936 -33.299999 122.88939
16.767818 -33.299999 122.88656
17.247042 -33.300003 122.88123
17.725592 -33.300003 122.88483
18.243677 -33.299999 122.89337
18.762266 -33.299999 122.89619
19.240076 -33.300003 122.90875
19.759436 -33.299999 122.90386
20.278673 -33.299999 122.90122
20.757269 -33.299999 122.90643
21.234926 -33.300003 122.92167
21.755922 -33.299999 122.90307
22.274841 -33.300003 122.90582
22.754351 -33.300003 122.90424
23.232834 -33.300003 122.91267
23.751644 -33.300003 122.91822
24.271975 -33.299999 122.91003
24.751917 -33.299999 122.90693
25.232666 -33.300003 122.89755
25.751862 -33.299999 122.90202
26.271334 -33.299999 122.90446
26.751001 -33.300003 122.90613
27.229874 -33.299999 122.91462
27.749256 -33.300003 122.91974
28.269464 -33.299999 122.919
28.749842 -33.300003 122.9175
29.230467 -33.299999 122.91495
29.753328 -33.299999 122.89736
30.269625 -33.299999 122.92771
30.749979 -33.299999 122.92934
31.232765 -33.300003 122.9147
31.754089 -33.300003 122.91188
32.2742 -33.299999 122.91793
32.756084 -33.300003 122.91219
33.238602 -33.300003 122.90333
33.719791 -33.299999 122.90395
34.242714 -33.299999 122.89479
34.761524 -33.300003 122.91247
35.245834 -33.299999 122.89571
35.727798 -33.299999 122.89423
36.248837 -33.299999 122.89996
36.768749 -33.300003 122.91288
37.250221 -33.299999 122.91618
37.734131 -33.299999 122.90582
38.253887 -33.300003 122.92119
38.776642 -33.300003 122.92031
39.259468 -33.299999 122.91846
39.739841 -33.300003 122.93081
40.221832 -33.300003 122.93472
40.744839 -33.300003 122.93511
41.270256 -33.299999 122.92358
41.751617 -33.299999 122.93282
42.23634 -33.300003 122.92523
42.71867 -33.300003 122.93082
43.243153 -33.299999 122.92772
43.766129 -33.299999 122.93304
44.249424 -33.299999 122.93607
44.735371 -33.299999 122.92699
45.258064 -33.299999 122.93636
45.779922 -33.299999 122.95054
46.269745 -33.300003 122.92629
46.747818 -33.300003 122.95794
47.23595 -33.300003 122.94376
47.718616 -33.300003 122.95541
48.24231 -33.299999 122.96519
48.773544 -33.300003 122.94201
49.259113 -33.299999 122.94269
49.746414 -33.299999 122.93655
50.233097 -33.300003 122.93359
50.720249 -33.299999 122.92904
51.250084 -33.299999 122.91586
51.697941 -33.300003 122.90705
-50.583649 -32.775002 122.91545
-50.260986 -32.774998 122.9136
-49.781281 -32.774998 122.89121
-49.255802 -32.774998 122.89285
-48.723713 -32.774998 122.92449
-48.244267 -32.774998 122.90108
-47.757694 -32.774998 122.91046
-47.27235 -32.774998 122.91458
-46.748013 -32.774998 122.91309
-46.223682 -32.774998 122.9121
-45.737431 -32.774998 122.92263
-45.254436 -32.774998 122.9184
-44.771549 -32.774998 122.91418
-44.247242 -32.774998 122.91683
-43.724499 -32.774998 122.91209
-43.239796 -32.774998 122.91959
-42.755482 -32.774998 122.92603
-42.272121 -32.774998 122.92831
-41.750603 -32.774998 122.92036
-41.225998 -32.774998 122.92963
-40.742451 -32.774998 122.93513
-40.259281 -32.774998 122.93961
-39.737904 -32.774998 122.93342
-39.223366 -32.774998 122.88938
-38.740566 -32.774998 122.89288
-38.258999 -32.774998 122.88999
-37.779266 -32.774998 122.87665
-37.258015 -32.774998 122.87185
-36.733734 -32.774998 122.88561
-36.254581 -32.774998 122.87016
-35.770985 -32.774998 122.88213
-35.248684 -32.774998 122.88625
-34.726215 -32.774998 122.8922
-34.247448 -32.774998 122.87574
-33.764866 -32.774998 122.88453
-33.241329 -32.774998 122.89986
-32.718517 -32.774998 122.91157
-32.238647 -32.774998 122.90458
-31.757933 -32.774998 122.90392
-31.277151 -32.774998 122.90432
-30.7568 -32.774998 122.90202
-30.237669 -32.774998 122.8913
-29.756182 -32.774998 122.89908
-29.274233 -32.774998 122.91104
-28.795198 -32.774998 122.90195
-0.57550001 -32.775002 122.7429
-0.25647143 -32.774998 122.82954
0.26173332 -32.774998 122.86825
0.74016666 -32.774998 122.85477
1.2582142 -32.774998 122.88113
1.7764001 -32.774998 122.87927
2.2544668 -32.774998 122.90054
2.732867 -32.774998 122.8903
3.2512 -32.774998 122.87795
3.7690833 -32.774998 122.89386
4.2475495 -32.774998 122.88468
4.7258 -32.774998 122.88602
5.2437429 -32.774998 122.89382
5.7618504 -32.774998 122.89597
6.2405 -32.774998 122.88366
6.7585425 -32.774998 122.88807
7.2763162 -32.774998 122.90104
7.7551003 -32.774998 122.88773
8.2328501 -32.774998 122.90281
8.7509289 -32.774998 122.90697
9.2701159 -32.774998 122.88455
9.7477331 -32.774998 122.90179
10.225683 -32.774998 122.91165
10.744085 -32.774998 122.90894
11.263317 -32.774998 122.89138
11.741349 -32.774998 122.90024
12.219533 -32.774998 122.90591
12.740287 -32.774998 122.86599
13.256383 -32.774998 122.9046
13.735683 -32.774998 122.89352
14.256057 -32.774998 122.86516
14.773784 -32.774998 122.8775
15.252818 -32.774998 122.87269
15.731601 -32.774998 122.8721
16.249615 -32.774998 122.88084
16.769283 -32.774998 122.86762
17.247417 -32.774998 122.8765
17.724783 -32.774998 122.89484
18.243343 -32.774998 122.89742
18.763517 -32.774998 122.882
19.241568 -32.774998 122.89193
19.760271 -32.774998 122.89484
20.277384 -32.774998 122.91491
20.757334 -32.774998 122.90595
21.236101 -32.774998 122.90958
21.756144 -32.774998 122.90082
22.275116 -32.774998 122.90318
22.753851 -32.774998 122.90897
23.232834 -32.774998 122.91267
23.752199 -32.774998 122.91327
24.271118 -32.774998 122.91792
24.752653 -32.774998 122.90063
25.232702 -32.774998 122.89703
25.751369 -32.774998 122.90605
26.271215 -32.774998 122.90548
26.753334 -32.774998 122.88718
27.228882 -32.774998 122.92251
27.748327 -32.774998 122.92694
28.268982 -32.774998 122.92267
28.748781 -32.774998 122.92538
29.230967 -32.774998 122.91128
29.749985 -32.774998 122.92171
30.270767 -32.774998 122.91982
30.752451 -32.774998 122.91199
31.236115 -32.774998 122.89156
31.752369 -32.774998 122.92361
32.275948 -32.774998 122.90634
32.753681 -32.774998 122.92799
33.238934 -32.774998 122.90122
33.723064 -32.774998 122.88288
34.244343 -32.774998 122.88441
34.765385 -32.774998 122.88824
35.246967 -32.774998 122.88885
35.72633 -32.774998 122.90318
36.24929 -32.774998 122.89724
36.770535 -32.774998 122.90234
37.251404 -32.774998 122.90933
37.733585 -32.774998 122.90899
38.25486 -32.774998 122.91575
38.775784 -32.774998 122.92509
39.258717 -32.774998 122.92269
39.740402 -32.774998 122.92764
40.220665 -32.774998 122.94105
40.746174 -32.774998 122.92788
41.270252 -32.774998 122.92361
41.752018 -32.774998 122.93075
42.234501 -32.774998 122.93472
42.720867 -32.774998 122.91973
43.243687 -32.774998 122.92503
43.765079 -32.774998 122.93832
44.250286 -32.774998 122.93185
44.733765 -32.774998 122.93491
45.255589 -32.774998 122.94814
45.778366 -32.774998 122.95794
46.265018 -32.774998 122.94842
46.752838 -32.774998 122.93475
47.236752 -32.774998 122.94006
47.757229 -32.774998 122.96373
48.280796 -32.774998 122.97401
48.776714 -32.774998 122.92779
49.262234 -32.774998 122.92899
49.754898 -32.774998 122.89964
50.233551 -32.774998 122.93148
50.724335 -32.774998 122.91163
51.250183 -32.774998 122.91541
51.695076 -32.775002 122.91895
-50.583324 -32.25 122.91707
-50.261677 -32.25 122.91043
-49.780483 -32.25 122.89493
-49.255188 -32.249996 122.89555
-48.728268 -32.249996 122.90386
-48.244953 -32.250004 122.89792
-47.759739 -32.25 122.90095
-47.274296 -32.249996 122.90561
-46.748024 -32.250004 122.91309
-46.220676 -32.249996 122.92635
-45.73822 -32.250004 122.91891
-45.255844 -32.249996 122.91154
-44.771694 -32.25 122.91367
-44.248211 -32.249992 122.91183
-43.726391 -32.249996 122.90257
-43.240829 -32.25 122.9143
-42.756191 -32.250004 122.92236
-42.273834 -32.249996 122.91936
-41.750786 -32.250004 122.91949
-41.2271 -32.249996 122.92384
-40.743237 -32.25 122.93093
-40.263115 -32.249996 122.91852
-39.758121 -32.263462 122.9242
-39.239571 -32.236538 122.91998
-38.738445 -32.250004 122.90499
-38.26263 -32.249996 122.86893
-37.778851 -32.250004 122.87926
-37.258312 -32.249992 122.87005
-36.735298 -32.249996 122.87613
-36.253628 -32.249996 122.87595
-35.771595 -32.249996 122.87844
-35.248096 -32.249996 122.88988
-34.727699 -32.25 122.88275
-34.245098 -32.249996 122.89103
-33.762447 -32.249996 122.90037
-33.241749 -32.249996 122.89716
-32.720699 -32.25 122.89683
-32.238033 -32.250004 122.90878
-31.759058 -32.249996 122.896
-31.239243 -32.25 122.88914
-30.718794 -32.250004 122.88721
-30.238571 -32.249996 122.88498
-29.754623 -32.25 122.91067
-29.275217 -32.249996 122.90369
-28.753162 -32.249996 122.91749
-0.096899994 -32.424999 122.74627
0.29365999 -32.285 122.85007
0.74002504 -32.25 122.87842
1.2582215 -32.250004 122.87889
1.7764167 -32.249996 122.87667
2.2546418 -32.250004 122.88322
2.7328417 -32.250004 122.89082
3.2509999 -32.249996 122.88876
3.769042 -32.249996 122.89596
4.2474332 -32.250004 122.89046
4.7255998 -32.250004 122.89494
5.2438502 -32.25 122.89024
5.7618752 -32.249996 122.89493
6.2407584 -32.249996 122.87527
6.7589068 -32.25 122.87771
7.2769337 -32.249996 122.88212
7.7554588 -32.249996 122.87775
8.2332916 -32.250004 122.89178
8.7511072 -32.25 122.90202
9.2694006 -32.25 122.90084
9.7479506 -32.249996 122.89704
10.22595 -32.25 122.9064
10.744828 -32.249996 122.89409
11.264075 -32.249996 122.87769
11.74181 -32.249996 122.89181
12.2601 -32.25 122.89363
12.779209 -32.25 122.88209
13.258149 -32.25 122.87622
13.737191 -32.249996 122.86988
14.255242 -32.250004 122.87733
14.77345 -32.250004 122.88223
15.252549 -32.25 122.87637
15.731625 -32.249996 122.87156
16.250029 -32.249996 122.87495
16.769041 -32.249996 122.87081
17.246784 -32.250004 122.88438
17.724924 -32.249996 122.89273
18.244364 -32.25 122.88526
18.762484 -32.249996 122.89358
19.242008 -32.25 122.88721
19.760143 -32.249996 122.89619
20.279016 -32.249996 122.89756
20.757566 -32.250004 122.90329
21.236433 -32.249996 122.90643
21.756519 -32.249996 122.89721
22.275391 -32.249996 122.90055
22.75535 -32.249996 122.89478
23.235374 -32.25 122.88901
23.752979 -32.25 122.90605
24.272284 -32.25 122.90741
24.752266 -32.25 122.90377
25.230774 -32.25 122.91384
25.752504 -32.250004 122.89659
26.27121 -32.250004 122.90551
26.751532 -32.25 122.90189
27.228636 -32.250004 122.92461
27.749134 -32.250004 122.92064
28.269117 -32.250004 122.92161
28.751991 -32.249996 122.90121
29.231041 -32.250004 122.91076
29.752451 -32.25 122.90367
30.270235 -32.250004 122.92348
30.750959 -32.25 122.92252
31.230352 -32.250004 122.93154
31.754812 -32.249996 122.90691
32.273556 -32.25 122.92214
32.759434 -32.249996 122.89011
33.239971 -32.250004 122.89437
33.741001 -32.263462 122.9063
34.261631 -32.236546 122.8922
34.765583 -32.25 122.88718
35.247551 -32.250004 122.88516
35.726849 -32.250004 122.90003
36.250866 -32.250008 122.88777
36.770092 -32.249996 122.90495
37.251575 -32.249996 122.90827
37.733494 -32.249996 122.90951
38.254475 -32.250004 122.91801
38.77729 -32.25 122.91665
39.259571 -32.250004 122.91793
39.742161 -32.25 122.91815
40.224777 -32.250004 122.91891
40.745022 -32.250004 122.93419
41.271275 -32.249996 122.91831
41.75333 -32.25 122.9239
42.236767 -32.250004 122.92312
42.720444 -32.250004 122.92184
43.244396 -32.250004 122.9214
43.767731 -32.25 122.92514
44.249653 -32.250004 122.93501
44.733444 -32.25 122.93645
45.241306 -32.263462 122.92737
45.760513 -32.236542 122.93949
46.265701 -32.250004 122.94528
46.754635 -32.250004 122.9263
47.234928 -32.25 122.94849
47.763699 -32.249996 122.93437
48.283978 -32.25 122.95979
48.771511 -32.249996 122.95097
49.259613 -32.250004 122.94059
49.749943 -32.25 122.92126
50.235535 -32.250004 122.92303
50.720867 -32.250004 122.92642
51.252438 -32.250004 122.90594
51.696972 -32.25 122.91102
-50.58585 -31.725 122.90601
-50.265072 -31.725 122.89563
-49.776295 -31.725 122.91343
-49.251961 -31.725002 122.91004
-48.725815 -31.725 122.91497
-48.243099 -31.725 122.9064
-47.760433 -31.725 122.8978
-47.271015 -31.725 122.92092
-46.74781 -31.725002 122.91402
-46.220997 -31.725 122.92477
-45.737885 -31.725 122.92049
-45.252701 -31.725 122.92684
-44.770084 -31.725 122.92157
-44.246483 -31.725002 122.92043
-43.725967 -31.725 122.90469
-43.238354 -31.725 122.92698
-42.756298 -31.725 122.92181
-42.271713 -31.725 122.93043
-41.750099 -31.725002 122.92307
-41.225601 -31.725 122.93173
-40.744801 -31.725 122.92249
-40.261585 -31.725 122.92694
-39.778648 -31.725 122.9304
-39.254585 -31.725002 122.93984
-38.734066 -31.725 122.92977
-38.260601 -31.725 122.88053
-37.781452 -31.725 122.86398
-37.255711 -31.725002 122.88541
-36.736179 -31.725 122.87087
-36.248352 -31.725 122.9081
-35.770802 -31.725 122.88318
-35.248657 -31.725002 122.88627
-34.725216 -31.725 122.89854
-34.242882 -31.725 122.90524
-33.761967 -31.725 122.90351
-33.240669 -31.725002 122.90438
-32.718834 -31.725 122.90946
-32.239269 -31.725 122.90035
-31.7593 -31.725 122.89442
-31.238216 -31.725002 122.89637
-30.718431 -31.725 122.88983
-30.238401 -31.725 122.88604
-29.755465 -31.725 122.90435
-29.273817 -31.725 122.91419
-28.755386 -31.725002 122.90034
-28.3874 -31.725 122.96145
0.78027999 -31.725 122.80264
1.2581571 -31.725002 122.88564
1.7763166 -31.725 122.88666
2.2546501 -31.725 122.8848
2.7328336 -31.725 122.89346
3.2507718 -31.725002 122.90228
3.7690001 -31.725 122.89701
4.2471004 -31.725 122.90466
4.7256999 -31.725 122.89022
5.2435861 -31.725002 122.90105
5.7621169 -31.725 122.88651
6.2403831 -31.725 122.88682
6.7584572 -31.725002 122.89079
7.2763829 -31.725 122.89895
7.7554498 -31.725 122.87829
8.2362671 -31.725 122.81555
8.7519855 -31.725002 122.88084
9.2694998 -31.725 122.89822
9.7470331 -31.725 122.91755
10.22665 -31.725 122.89167
10.746142 -31.725002 122.86843
11.262967 -31.725 122.8977
11.7412 -31.725 122.90234
12.2614 -31.725002 122.87112
12.778617 -31.725 122.8926
13.258817 -31.725 122.86575
13.736884 -31.725 122.8746
14.255327 -31.725002 122.87597
14.774449 -31.725 122.86805
15.252366 -31.725 122.87901
15.730733 -31.725 122.88366
16.249243 -31.725002 122.88532
16.768532 -31.725 122.8771
17.247849 -31.725 122.87124
17.726067 -31.725 122.87907
18.244928 -31.725002 122.8785
18.762199 -31.725 122.8967
19.241152 -31.725 122.89721
19.760172 -31.725002 122.89575
20.277483 -31.725 122.91384
20.75795 -31.725 122.89962
21.237249 -31.725 122.89801
21.755672 -31.725002 122.90534
22.274881 -31.725 122.90528
22.753967 -31.725 122.90793
23.233515 -31.725 122.90636
23.752258 -31.725002 122.91235
24.273352 -31.725 122.89795
24.753 -31.725 122.89747
25.232834 -31.725 122.89597
25.750814 -31.725002 122.91058
26.271734 -31.725 122.9013
26.751131 -31.725 122.90508
27.230616 -31.725 122.90885
27.749146 -31.725002 122.92063
28.267601 -31.725 122.93317
28.750069 -31.725 122.91592
29.233515 -31.725 122.89233
29.752573 -31.725002 122.90277
30.270166 -31.725 122.92402
30.752451 -31.725 122.91201
31.232336 -31.725 122.91788
31.755255 -31.725002 122.90379
32.273251 -31.725 122.92425
32.753864 -31.725 122.92694
33.237968 -31.725 122.90753
33.7188 -31.725 122.91024
34.242214 -31.725002 122.89796
34.76355 -31.725 122.89982
35.245232 -31.725 122.89938
35.726685 -31.725 122.90106
36.249748 -31.725002 122.89454
36.768566 -31.725 122.91392
37.250504 -31.725 122.91463
37.732666 -31.725 122.91425
38.256947 -31.725002 122.90401
38.77747 -31.725 122.9156
39.259285 -31.725 122.91949
39.741764 -31.725 122.92025
40.225349 -31.725 122.91575
40.746387 -31.725002 122.92698
41.268852 -31.725 122.93097
41.75243 -31.725 122.9286
42.236969 -31.725 122.92204
42.720016 -31.725 122.92397
43.242226 -31.725002 122.93226
43.76762 -31.725 122.92564
44.251999 -31.725 122.92343
44.731136 -31.725 122.94754
45.254097 -31.725002 122.95536
45.781933 -31.725 122.94107
46.268185 -31.725 122.93368
46.754665 -31.725 122.9263
47.240002 -31.725 122.92529
47.726883 -31.725 122.91798
48.213516 -31.725 122.91285
48.742958 -31.725002 122.89799
49.264668 -31.725 122.91843
49.751484 -31.725 122.9144
50.233601 -31.725 122.93145
50.716419 -31.725 122.9454
51.250614 -31.725002 122.91359
51.697327 -31.725 122.90942
-50.581501 -31.375 122.925
-50.260712 -31.375 122.91464
-49.777721 -31.375 122.90704
-49.250114 -31.375 122.91817
-48.726749 -31.375 122.91074
-48.244282 -31.375 122.9011
-47.756062 -31.375 122.91785
-47.272831 -31.375 122.9125
-46.744556 -31.375 122.92937
-46.223019 -31.375 122.91528
-45.736782 -31.375 122.9258
-45.253784 -31.375 122.92157
-44.767933 -31.375 122.93213
-44.246128 -31.375 122.92226
-43.722401 -31.375 122.92263
-43.241455 -31.375 122.91113
-42.758118 -31.375 122.91232
-42.271099 -31.375 122.9336
-41.748241 -31.375 122.93304
-41.224602 -31.375 122.93701
-40.743233 -31.375 122.93094
-40.257332 -31.375 122.95017
-39.776733 -31.375 122.94093
-39.261959 -31.375 122.89826
-38.738335 -31.375 122.90555
-38.254932 -31.375 122.91319
-37.776031 -31.375 122.89561
-37.257103 -31.375 122.87725
-36.733379 -31.375 122.88776
-36.251633 -31.375 122.88807
-35.771484 -31.375 122.87897
-35.248104 -31.375 122.88987
-34.725719 -31.375 122.89539
-34.243221 -31.375 122.90316
-33.76405 -31.375 122.88982
-33.242558 -31.375 122.89172
-32.718834 -31.375 122.90945
-32.239567 -31.375 122.89825
-31.758085 -31.375 122.90285
-31.278051 -31.375 122.89798
-30.759058 -31.375 122.88577
-30.236099 -31.375 122.90289
-29.757019 -31.375 122.89274
-29.275232 -31.375 122.90369
-28.754442 -31.375 122.90755
-28.351667 -31.375 122.9282
1.2586858 -31.375 122.81081
1.7763168 -31.375 122.88349
2.25455 -31.375 122.89215
2.7327166 -31.375 122.90186
3.2507288 -31.375 122.90498
3.7692668 -31.375 122.88439
4.2477002 -31.375 122.87836
4.7251501 -31.375 122.9144
5.2436857 -31.375 122.89745
5.7619667 -31.375 122.89175
6.2407498 -31.375 122.87525
6.7587142 -31.375 122.88357
7.2768826 -31.375 122.88318
7.7550664 -31.375 122.88879
8.2330503 -31.375 122.89756
8.7511721 -31.375 122.90067
9.2693663 -31.375 122.90137
9.7478342 -31.375 122.89968
10.22725 -31.375 122.87909
10.745942 -31.375 122.87202
11.262866 -31.375 122.89977
11.743783 -31.375 122.85611
12.22155 -31.375 122.87125
12.739299 -31.375 122.88224
13.25795 -31.375 122.87939
13.736968 -31.375 122.87354
14.255272 -31.375 122.87687
14.773499 -31.375 122.88171
15.251717 -31.375 122.88845
15.730817 -31.375 122.8826
16.249443 -31.375 122.88263
16.768301 -31.375 122.88025
17.246317 -31.375 122.89017
17.725901 -31.375 122.88117
18.2435 -31.375 122.89563
18.762684 -31.375 122.89146
19.24 -31.375 122.9098
19.760172 -31.375 122.89575
20.278467 -31.375 122.90333
20.756716 -31.375 122.91223
21.236334 -31.375 122.90748
21.7554 -31.375 122.90804
22.273615 -31.375 122.91791
22.753283 -31.375 122.91422
23.231619 -31.375 122.92423
23.752474 -31.375 122.91058
24.272635 -31.375 122.90426
24.752266 -31.375 122.90377
25.232599 -31.375 122.89807
25.752228 -31.375 122.89886
26.270317 -31.375 122.91286
26.751017 -31.375 122.90614
27.231003 -31.375 122.9057
27.749371 -31.375 122.91885
28.270515 -31.375 122.9111
28.750336 -31.375 122.91384
29.227549 -31.375 122.93653
29.752459 -31.375 122.90369
30.26795 -31.375 122.93978
30.752317 -31.375 122.91306
31.2369 -31.375 122.88628
31.75687 -31.375 122.89293
32.275917 -31.375 122.90635
32.757999 -31.375 122.89957
33.2365 -31.375 122.917
33.719299 -31.375 122.90708
34.244358 -31.375 122.88441
34.765717 -31.375 122.88612
35.244366 -31.375 122.90463
35.723366 -31.375 122.9211
36.244301 -31.375 122.92705
36.768215 -31.375 122.91602
37.252117 -31.375 122.90513
37.734333 -31.375 122.90475
38.255848 -31.375 122.91032
38.775032 -31.375 122.9293
39.257183 -31.375 122.93109
39.740616 -31.375 122.92661
40.222416 -31.375 122.93158
40.743828 -31.375 122.94051
41.26865 -31.375 122.93201
41.752415 -31.375 122.92865
42.236568 -31.375 122.92416
42.720455 -31.375 122.92184
43.24567 -31.375 122.91506
43.768902 -31.375 122.91933
44.251148 -31.375 122.92761
44.733967 -31.375 122.93385
45.2575 -31.375 122.93909
45.779465 -31.375 122.95266
46.264568 -31.375 122.95055
46.748734 -31.375 122.9537
47.233067 -31.375 122.95693
47.763226 -31.375 122.93659
48.28455 -31.375 122.95715
48.778885 -31.375 122.91828
49.262249 -31.375 122.92896
49.745899 -31.375 122.93867
50.238003 -31.375 122.91248
50.724079 -31.375 122.9127
51.251045 -31.375 122.9118
51.695076 -31.375 122.91892
-50.580772 -30.8375 122.92815
-50.26144 -30.8375 122.91148
-49.776764 -30.8375 122.91131
-49.252647 -30.8375 122.90686
-48.726635 -30.8375 122.91128
-48.242886 -30.837496 122.90744
-47.756641 -30.8375 122.91519
-47.272152 -30.8375 122.91563
-46.745811 -30.837496 122.92348
-46.223118 -30.837496 122.91474
-45.735596 -30.837496 122.93159
-45.25444 -30.837496 122.91837
-44.76976 -30.8375 122.92316
-44.245857 -30.837498 122.92358
-43.72282 -30.8375 122.92051
-43.239063 -30.837496 122.92326
-42.753841 -30.8375 122.93449
-42.271526 -30.8375 122.93148
-41.748138 -30.837498 122.93349
-41.225986 -30.8375 122.92965
-40.741108 -30.8375 122.9425
-40.25956 -30.8375 122.93802
-39.776176 -30.8375 122.94408
-39.256416 -30.837496 122.92947
-38.735188 -30.837496 122.92343
-38.258595 -30.8375 122.89213
-37.775597 -30.8375 122.89825
-37.256859 -30.837496 122.87864
-36.734341 -30.8375 122.88194
-36.250782 -30.8375 122.89335
-35.771252 -30.837496 122.88053
-35.247227 -30.837496 122.89532
-34.724964 -30.8375 122.90012
-34.242977 -30.8375 122.90472
-33.761562 -30.8375 122.90615
-33.24044 -30.837498 122.90572
-32.719685 -30.8375 122.90365
-32.239727 -30.8375 122.89719
-31.756792 -30.8375 122.9118
-31.277748 -30.8375 122.90008
-30.756685 -30.837498 122.90291
-30.237177 -30.8375 122.89499
-29.754908 -30.8375 122.90856
-29.274513 -30.8375 122.90894
-28.755606 -30.837498 122.89852
-28.405624 -30.837502 122.81922
1.45825 -31 122.79465
1.80865 -30.869999 122.84096
2.2546418 -30.8375 122.88583
2.7328832 -30.8375 122.8887
3.2508855 -30.837498 122.89642
3.769067 -30.837502 122.89333
4.2473664 -30.8375 122.89309
4.7255998 -30.837496 122.89495
5.2437286 -30.837498 122.89519
5.7616668 -30.837502 122.90176
6.2397499 -30.8375 122.90783
6.75845 -30.837498 122.89211
7.2765999 -30.837496 122.8921
7.7548752 -30.8375 122.89404
8.2329264 -30.8375 122.90124
8.7516146 -30.837498 122.88985
9.2695007 -30.837496 122.89822
9.7470512 -30.837496 122.91703
10.225509 -30.8375 122.91532
10.744315 -30.837498 122.90446
11.263218 -30.8375 122.89347
11.741933 -30.8375 122.88918
12.259179 -30.8375 122.90985
12.777977 -30.8375 122.90258
13.256482 -30.8375 122.90305
13.735191 -30.8375 122.90088
14.254257 -30.8375 122.89172
14.772609 -30.8375 122.89431
15.252025 -30.837496 122.88372
15.729917 -30.8375 122.89468
16.249315 -30.837498 122.88444
16.768024 -30.8375 122.88391
17.246443 -30.8375 122.88858
17.724466 -30.837502 122.8985
18.243723 -30.8375 122.89293
18.762484 -30.8375 122.89355
19.240507 -30.8375 122.90402
19.759855 -30.8375 122.89934
20.278173 -30.8375 122.90649
20.757067 -30.8375 122.90855
21.236124 -30.8375 122.9096
21.756521 -30.837498 122.89722
22.274252 -30.8375 122.9116
22.753191 -30.8375 122.91528
23.232794 -30.8375 122.91321
23.751692 -30.837498 122.91778
24.272041 -30.8375 122.90952
24.753008 -30.8375 122.89746
25.231934 -30.8375 122.90385
25.752123 -30.837498 122.89974
26.272926 -30.8375 122.89132
26.749825 -30.8375 122.91561
27.229746 -30.8375 122.91567
27.748905 -30.837496 122.92244
28.270699 -30.8375 122.90952
28.751801 -30.8375 122.90277
29.23218 -30.837496 122.90234
29.750837 -30.837496 122.91541
30.271925 -30.8375 122.91137
30.751785 -30.8375 122.91674
31.231949 -30.8375 122.92049
31.752378 -30.837496 122.92363
32.273014 -30.8375 122.92582
32.759747 -30.8375 122.88801
33.23521 -30.8375 122.92545
33.741306 -30.824995 122.90437
34.261101 -30.849998 122.8956
34.762783 -30.8375 122.90456
35.245834 -30.8375 122.8957
35.726593 -30.8375 122.9016
36.248745 -30.8375 122.90041
36.769722 -30.837496 122.90707
37.251305 -30.8375 122.90984
37.732685 -30.837496 122.91425
38.255768 -30.8375 122.91078
38.776554 -30.8375 122.92086
39.258892 -30.8375 122.92161
